# .PCD v0.7 - Point Cloud Data file format
VERSION 0.7
FIELDS x y z normal_x normal_y normal_z curvature
SIZE 4 4 4 4 4 4 4
TYPE F F F F F F F
COUNT 1 1 1 1 1 1 1
WIDTH 419
HEIGHT 1
VIEWPOINT 0 0 0 1 0 0 0
POINTS 419
DATA ascii
56.309338 -176.65437 86.46508 0.696419 -0.46233383 -0.17654881 0.85435438
56.312897 -176.65222 86.460014 0.696419 -0.46233383 -0.17654881 0.85435438
57.005386 -176.45047 87.031082 0.24893384 0.046425644 -0.46643797 0.53074265
57.001831 -176.45261 87.036148 0.24893384 0.046425644 -0.46643797 0.53074265
56.263287 -176.07516 86.466248 0.50999016 -0.2983208 -0.12461993 0.60383391
56.281879 -176.12114 86.459961 0.50999016 -0.2983208 -0.12461993 0.60383391
56.309692 -176.65373 86.461372 0.696419 -0.46233383 -0.17654881 0.85435438
57.005035 -176.45111 87.034782 0.24893384 0.046425644 -0.46643797 0.53074265
53.394463 -176.08417 79.940483 0.18975309 0.1050268 -0.54149383 0.58331162
60.45113 -171.52957 79.451614 0.044804335 0.64498889 -0.4760243 0.80288059
42.029652 -175.91174 76.608429 0.43455553 -0.379513 0.51730663 0.77490306
58.398026 -171.19493 76.55703 -0.46929342 0.5789488 0.37215897 0.83301878
40.32896 -177.06291 78.718613 0.51368946 -0.31299797 -0.51751792 0.79351711
40.329422 -177.04788 78.713913 0.23410599 -0.096049301 -0.65990245 0.7067548
40.344589 -177.05795 78.716949 0.51368946 -0.31299797 -0.51751792 0.79351711
40.543652 -176.98486 78.519821 0.18344656 -0.13355355 -0.61755383 0.65792245
40.436424 -176.92894 78.51844 0.23181829 -0.015386433 -0.5411582 0.58892161
60.550808 -171.26445 78.708923 0.28225225 -0.58778846 0.26407763 0.70349032
60.559143 -171.27695 78.713631 0.29871997 -0.58586401 0.3726024 0.75584573
60.543262 -171.28098 78.711975 0.29871997 -0.58586401 0.3726024 0.75584573
60.397018 -171.22009 78.513527 0.74122655 -0.27404517 -0.10628672 0.79737973
60.420746 -171.22539 78.608322 0.56814164 0.24477836 -0.66062653 0.90505731
49.824299 -175.73601 75.574409 -0.58751047 -0.038599074 0.066597998 0.59253162
49.824631 -175.73595 75.574394 -0.58751047 -0.038599074 0.066597998 0.59253162
49.828899 -175.75853 75.630661 0.19725859 -0.14561707 -0.5251202 0.5795399
49.837288 -175.75688 75.630585 0.19725859 -0.14561707 -0.5251202 0.5795399
51.784824 -175.20029 75.630058 0.87098396 -0.090035282 -0.31248417 0.92971271
51.796463 -175.17201 75.573921 0.67775691 -0.32772535 -0.4325844 0.868267
51.804806 -175.19342 75.630173 0.87098396 -0.090035282 -0.31248417 0.92971271
51.779106 -175.12807 75.53566 0.64136583 -0.1688948 -0.15394053 0.68086213
51.796776 -175.17188 75.573921 0.67775691 -0.32772535 -0.4325844 0.868267
51.746449 -175.06624 75.504814 0.55501413 -0.18626501 0.094049007 0.5929423
51.753967 -175.06366 75.50486 0.55501413 -0.18626501 0.094049007 0.5929423
41.590744 -178.39154 84.760643 0.62178564 -0.32825786 0.27783954 0.75601947
41.413189 -177.43221 77.16478 -0.62175554 0.15860641 0.42881152 0.77176112
59.833462 -172.16391 77.16024 0.056004122 -0.36774436 0.52467936 0.64316469
47.265182 -176.09932 82.945786 0.16555613 -0.17879122 -0.48754025 0.54504186
60.165134 -173.01257 85.304367 -0.21816218 -0.50496006 0.31205675 0.63242298
60.15955 -173.01337 85.298126 0.53009158 -0.27571827 -0.11926305 0.60929579
60.424915 -172.93611 85.341553 0.14889565 -0.44134477 -0.22516876 0.51735491
60.422745 -172.91957 85.346107 0.14889565 -0.44134477 -0.22516876 0.51735491
60.41428 -172.91743 85.346924 0.32897273 -0.84079045 0.16962221 0.91865301
41.258244 -178.48988 85.217514 0.4036175 -0.40969846 0.062646613 0.57851923
41.238716 -178.38542 85.351921 0.46756852 -0.40606421 0.25648698 0.67029399
40.821331 -177.71066 84.916527 -0.37188721 -0.024504483 0.67908013 0.77462918
40.901443 -177.8103 84.779129 -0.39403576 -0.45170432 0.55934203 0.81985641
40.971546 -177.87868 84.761322 -0.24751256 -0.264768 0.7773875 0.85772717
49.732582 -176.91315 85.353668 0.24445178 -0.31504971 -0.45865232 0.60776222
49.733051 -176.91489 85.357117 0.24445178 -0.31504971 -0.45865232 0.60776222
43.189907 -178.09702 85.302284 -0.2567057 -0.097452 0.83343589 0.8775022
43.281181 -178.12775 85.317192 -0.28886664 0.29972047 -0.4830119 0.63763374
43.352818 -178.24034 85.11676 0.14140731 -0.42328805 -0.27102003 0.52213085
43.380661 -178.25749 85.150902 0.14140731 -0.42328805 -0.27102003 0.52213085
58.621368 -173.74796 85.312363 -0.66524637 0.15886022 0.082792819 0.6889441
58.662231 -173.79794 85.270317 0.00078859925 0.62700129 -0.18261173 0.65305305
58.618031 -173.87627 85.115768 -0.4736557 0.44586319 0.41921157 0.7738747
58.602974 -173.90477 85.148453 -0.4736557 0.44586319 0.41921157 0.7738747
59.762432 -170.64651 75.837852 -0.41008103 -0.17219384 0.49774009 0.66750455
42.944023 -177.07024 85.387878 0.63999116 -0.30077049 -0.61891335 0.93973678
42.479374 -176.10016 75.543953 -0.80231965 0.36218074 0.30214211 0.93068874
49.871494 -175.94498 77.95816 -0.52593338 -0.0056503415 0.0036281049 0.52597624
43.284096 -175.76289 76.427925 0.42871219 0.41226745 -0.70893365 0.92538941
43.257854 -175.71034 76.452614 0.31272915 0.58090556 -0.049099177 0.66155994
43.351143 -175.7746 76.485344 -0.43257591 0.40187463 -0.1872258 0.61941797
43.348103 -175.73329 76.519569 0.33316255 -0.23275217 0.53292906 0.67021209
51.851753 -174.9854 75.604332 0.74791443 -0.22297275 -0.43739653 0.89465553
51.853054 -174.9904 75.605133 0.74791443 -0.22297275 -0.43739653 0.89465553
57.296448 -171.71442 76.558426 -0.36822385 0.16581364 0.32478559 0.5182361
57.296253 -171.71477 76.560387 -0.36822385 0.16581364 0.32478559 0.5182361
57.310322 -171.68204 76.56385 -0.69865787 -0.022973742 0.33167958 0.77373248
57.357128 -171.67784 76.449074 0.039455682 0.29316702 -0.59968352 0.66867328
57.296078 -171.71523 76.563354 -0.36822385 0.16581364 0.32478559 0.5182361
59.846752 -170.60931 75.923096 0.2472132 -0.32841411 -0.39179593 0.56786817
60.030071 -169.50471 76.852768 -0.68304992 -0.14978625 0.065097764 0.70230395
59.411766 -168.26276 76.540871 0.78954732 -0.045806229 -0.2161696 0.81988567
49.786751 -177.04063 85.044319 -0.74611557 0.075186759 0.47935653 0.89001358
40.948833 -177.77563 84.993874 0.6997267 -0.37706128 -0.21837449 0.82430583
40.838631 -177.41609 82.241722 0.31234574 -0.43599868 0.15205069 0.55747116
39.644527 -173.91663 76.545807 -0.42612284 0.79898202 -0.38861224 0.98537934
59.475494 -168.24486 76.540924 0.36143574 0.28504607 -0.4260937 0.62725025
60.260838 -171.65622 82.612114 -0.7654615 -0.21633835 0.25585574 0.83558106
60.268864 -171.68427 82.606613 -0.7654615 -0.21633835 0.25585574 0.83558106
60.271011 -171.6918 82.604523 -0.7654615 -0.21633835 0.25585574 0.83558106
60.202663 -171.37691 78.437134 0.61649209 -0.056621686 -0.523229 0.81057829
60.209339 -171.39169 78.384544 0.67521918 -0.11998997 -0.63960952 0.93777335
60.244137 -171.24632 78.452843 0.05517225 -0.63391995 0.76230073 0.99297577
60.208462 -171.38863 78.359741 0.4925898 -0.14802355 -0.78964663 0.94238925
60.167389 -171.33313 78.368614 0.61040854 -0.17553422 -0.15390408 0.65352684
40.248714 -176.55827 82.611565 -0.11802608 0.3731156 0.51044095 0.64319152
40.256302 -176.58482 82.608978 -0.10736567 0.35239178 0.55924881 0.66967648
40.794556 -177.26166 82.608269 -0.13444918 0.078144401 0.73220581 0.7485376
40.670254 -176.88144 78.42189 -0.11645286 0.47865948 -0.2502538 0.55254245
40.686401 -176.97542 78.389366 0.33413568 0.42187715 -0.21442488 0.57931429
40.667519 -176.87756 78.420174 -0.11645286 0.47865948 -0.2502538 0.55254245
40.683071 -176.96394 78.442474 0.28622821 -0.45162582 -0.19002916 0.56745356
60.479668 -171.43024 78.533821 -0.58386165 0.25738478 0.71090996 0.95526659
60.49881 -171.45343 78.61454 0.6288408 -0.040308893 -0.076531783 0.63476193
40.477398 -177.151 78.538757 -0.44449943 -0.1258027 0.37619433 0.59575856
42.032402 -175.90892 76.6353 0.43455553 -0.379513 0.51730663 0.77490306
42.062931 -175.86497 76.60836 0.68955827 -0.61512339 0.27788222 0.96492797
60.531002 -171.83838 81.643944 -0.53788877 0.13744944 0.040882736 0.55667591
60.516441 -171.55173 79.385193 0.21828607 0.53372204 0.017057508 0.57688731
62.001766 -171.62025 84.273666 0.57489526 -0.4487929 -0.31721222 0.79532588
40.792622 -177.25491 82.610367 -0.13444918 0.078144401 0.73220581 0.7485376
40.258965 -176.5941 82.608055 -0.16745111 0.25703976 0.46943176 0.56078112
59.902977 -171.14261 75.305519 -0.34138027 -0.1822941 0.79369521 0.88301963
59.980999 -171.11096 75.305031 0.11049314 -0.28897229 0.63500571 0.70636106
40.488308 -175.47389 76.537666 -0.52726287 -0.096367776 -0.028736584 0.53676689
40.512623 -175.48285 76.460556 -0.25119203 0.48511195 0.0051677078 0.54631287
40.497456 -175.47861 76.522141 -0.75056928 0.34479433 0.29303357 0.87641656
59.97337 -171.08429 75.309174 0.11049314 -0.28897229 0.63500571 0.70636106
41.324684 -177.4561 77.147339 -0.64422566 0.1402964 0.5921725 0.88621557
47.74535 -175.83182 81.515488 0.65044922 0.27786052 -0.19161797 0.73280835
43.888515 -176.44032 81.005951 0.12539059 0.017910784 -0.68001312 0.6917091
50.830742 -175.41605 83.347252 -0.56483388 -0.31195286 0.2887817 0.70692772
50.776882 -175.43143 83.34726 -0.56483388 -0.31195286 0.2887817 0.70692772
50.754925 -175.32869 83.486458 -0.41869962 0.30181456 0.17523119 0.54507554
50.795124 -175.3172 83.48645 -0.042680047 -0.18719755 0.80698836 0.82951474
43.612595 -176.74084 82.969048 0.49782845 0.10871104 -0.38463891 0.63843429
49.6301 -175.08295 75.497879 -0.57450294 -0.28017148 0.21895161 0.67564005
57.204659 -171.94283 76.611656 0.66132605 0.30209213 -0.43054706 0.84497488
58.306324 -171.72815 75.180458 0.0010366738 0.10285057 0.56818312 0.57741785
57.310009 -171.68274 76.568939 -0.69865787 -0.022973742 0.33167958 0.77373248
57.29034 -171.72656 76.582748 -0.37468553 0.27670982 0.39350769 0.60975885
57.310802 -171.68187 76.587502 -0.69865787 -0.022973742 0.33167958 0.77373248
49.734268 -176.91956 85.356392 0.24445178 -0.31504971 -0.45865232 0.60776222
39.427765 -178.17947 84.752258 0.097996593 -0.58658636 0.75927347 0.96445996
43.369789 -175.78429 76.498558 -0.13287652 0.19805169 0.60594916 0.65119511
43.345818 -175.77249 76.481316 0.35738504 0.42696452 -0.63217211 0.84241575
57.314957 -171.77754 76.478195 0.49457672 0.52396315 -0.2745139 0.77103913
57.301136 -171.79988 76.495117 -0.41316882 0.31446183 0.060659647 0.52275646
57.202423 -171.8947 76.607864 0.16272181 0.48114941 -0.12239771 0.52245986
60.979595 -170.5977 76.329971 -0.4031885 0.10943201 0.28743514 0.50710481
58.39658 -171.19411 76.560387 -0.46929342 0.5789488 0.37215897 0.83301878
40.271572 -176.59023 82.608322 -0.16745111 0.25703976 0.46943176 0.56078112
60.486622 -172.08629 84.91169 -0.73205382 0.37714303 -0.038733333 0.82440275
60.461662 -172.09991 84.91098 -0.50037628 0.3611469 0.12529609 0.62968451
61.919125 -171.74675 84.747017 -0.42542207 0.51056474 0.090759903 0.67074412
61.773579 -173.36092 76.790314 0.40235355 0.21485254 -0.64772463 0.79221034
61.745899 -173.38095 76.788834 0.40235355 0.21485254 -0.64772463 0.79221034
48.966328 -176.58707 79.404282 -0.4161979 -0.36677825 0.43396351 0.70432329
58.770996 -173.6839 85.177284 -0.73418581 0.027961999 0.12761119 0.745718
52.976685 -175.43976 79.402985 -0.44336823 0.55604815 0.14183086 0.72517651
57.311043 -171.68111 76.557739 -0.70908827 0.070633501 0.4171882 0.82573682
60.535667 -171.37888 78.754066 -0.81124222 0.30716002 0.48818028 0.99537992
60.42477 -171.22438 78.610107 0.84928578 0.035849024 -0.42334595 0.949628
60.132664 -171.94002 76.953453 -0.20256512 -0.39157557 0.67056286 0.8025077
60.136692 -171.98283 77.030029 -0.68923879 0.10760199 0.69318736 0.98343122
51.76548 -175.13274 75.535599 0.64136583 -0.1688948 -0.15394053 0.68086213
49.80727 -175.62073 75.50531 0.12566853 -0.21603301 -0.61725199 0.66593009
49.79425 -175.56078 75.495598 0.32246077 -0.38405865 -0.37048274 0.62348974
49.811127 -175.61975 75.505302 0.12566853 -0.21603301 -0.61725199 0.66593009
49.803383 -175.62154 75.505348 0.12566853 -0.21603301 -0.61725199 0.66593009
59.87088 -172.16702 77.201035 0.49262127 -0.28621477 0.11334606 0.58089751
49.635189 -175.31775 77.266945 0.74223286 0.031007737 -0.38157439 0.83514678
43.394539 -178.26376 85.164345 0.16114426 -0.39981028 -0.40434596 0.59102571
43.351925 -178.23892 85.114319 0.2743012 -0.46400777 -0.40307578 0.67306352
43.239754 -178.11269 84.887329 -0.27388066 0.35482699 0.4473868 0.63329911
58.618126 -173.8727 85.110558 -0.4343791 0.51330775 0.28894973 0.73188931
58.595112 -173.91629 85.160599 -0.45652193 0.4903551 0.43907654 0.80102968
58.639751 -173.81625 85.302231 -0.34805104 0.28379035 0.25677502 0.51731026
42.465504 -176.23189 75.600082 -0.37781829 -0.10793701 0.63325965 0.74526161
49.811546 -175.85254 77.130615 -0.40191361 -0.40826011 0.53375208 0.7830084
49.898827 -175.92508 77.028397 -0.51517057 0.078521892 -0.014392912 0.52131909
49.814793 -175.85201 77.132675 -0.40191361 -0.40826011 0.53375208 0.7830084
49.886494 -175.92773 77.024834 -0.51517057 0.078521892 -0.014392912 0.52131909
49.878185 -175.92892 77.021637 -0.51517057 0.078521892 -0.014392912 0.52131909
42.325626 -175.79532 75.654472 0.36184144 0.13739181 -0.57387942 0.69220179
43.225193 -175.79955 76.357185 0.33603504 0.40410244 -0.63413763 0.82361937
43.347614 -175.73341 76.518585 0.33316255 -0.23275217 0.53292906 0.67021209
43.347233 -175.73358 76.517632 0.33316255 -0.23275217 0.53292906 0.67021209
59.897652 -171.11546 75.309624 -0.53855056 0.064011499 0.56337845 0.78200352
59.89534 -171.11592 75.309685 -0.53855056 0.064011499 0.56337845 0.78200352
58.19239 -171.62964 75.577042 0.39772093 -0.33420169 -0.091540873 0.5274964
51.90934 -175.24431 77.085068 0.24683526 -0.34086335 0.37257344 0.56207335
51.903236 -175.24847 77.099442 0.24683526 -0.34086335 0.37257344 0.56207335
51.853737 -175.36401 77.021774 -0.029415101 -0.093566403 0.53414267 0.543073
58.125931 -171.38376 75.601212 0.20674279 0.48352873 -0.20038575 0.56275845
58.120533 -171.38673 75.60704 0.20674279 0.48352873 -0.20038575 0.56275845
40.624664 -176.12201 75.850975 0.63961291 -0.37337968 0.21433643 0.77101046
60.020535 -169.47208 76.791191 -0.79140174 0.33984745 0.11604145 0.86906767
60.393677 -171.96332 81.641342 0.58534813 -0.21627577 0.33344838 0.7075277
60.430416 -171.8951 81.641258 -0.43371829 0.43421066 0.092727333 0.62068415
60.152992 -170.11374 78.76152 -0.14307657 -0.33944714 0.54889083 0.66104192
60.297386 -171.64764 79.449753 0.53513283 -0.011359707 -0.25241429 0.59178472
40.186661 -176.30515 82.392426 -0.66108775 0.10694408 0.65292495 0.93529946
40.782612 -177.21988 82.617798 -0.13444918 0.078144401 0.73220581 0.7485376
40.825748 -177.51126 81.665466 0.34941861 -0.55083358 0.037862584 0.65340996
40.766457 -177.51913 81.646095 -0.033054259 -0.51748419 0.75129586 0.91286796
60.412376 -171.39548 78.50351 -0.36855555 0.25102529 0.75666636 0.87828857
41.33231 -177.0332 80.32058 0.61508602 -0.023508579 -0.010398969 0.61562294
39.626614 -176.82805 76.525322 -0.09533067 -0.2315487 0.78205836 0.82116866
39.657055 -176.84544 76.491043 -0.13124396 -0.43623406 0.51099551 0.68457395
39.750648 -176.89377 76.334473 -0.22009273 0.4502584 -0.54303831 0.73896146
40.607582 -175.54312 76.415276 -0.40825775 -0.31750581 0.50190407 0.72068858
60.583836 -173.75618 76.43811 -0.68443781 0.18405247 0.43270129 0.83039802
62.00444 -174.27859 84.114517 -0.45762038 0.21082614 -0.041554838 0.50555998
62.003216 -174.27435 84.079803 -0.45762038 0.21082614 -0.041554838 0.50555998
60.941483 -174.86832 82.844849 -0.041031629 0.06113236 -0.56807423 0.57282555
60.898594 -174.71942 81.629692 0.60838079 -0.32979488 -0.15612461 0.70941299
61.831669 -173.67876 79.219154 0.34925514 0.21357143 -0.47518554 0.62721068
60.769932 -174.27269 77.984207 -0.69581604 -0.00037822872 0.64842373 0.95111167
61.74712 -173.38519 76.823555 0.40235355 0.21485254 -0.64772463 0.79221034
61.859348 -173.65872 79.220634 0.34925514 0.21357143 -0.47518554 0.62721068
41.90102 -180.28064 84.438599 -0.59386581 0.10090196 0.45966443 0.75772631
38.402466 -175.83665 76.206787 0.67059422 -0.17285463 -0.60981393 0.92273957
38.400433 -175.83325 76.17672 0.67059422 -0.17285463 -0.60981393 0.92273957
60.696293 -174.20644 76.719719 0.81474125 -0.29243228 -0.46547318 0.98284549
60.867832 -174.80203 81.580368 0.59692627 -0.49522895 -0.45264328 0.8980304
60.910721 -174.95094 82.795532 -0.80812758 0.10510471 0.055295289 0.81680769
60.953606 -175.09984 84.010689 -0.83352667 0.33793288 0.26692736 0.93819803
60.891022 -174.96448 84.592964 -0.63497841 -0.36310574 0.20161396 0.75874341
42.003422 -180.28345 84.463829 -0.70375037 0.26611477 0.54330599 0.92804259
41.661076 -179.09337 76.269661 -0.093442857 0.37853259 0.40246767 0.56035584
60.271458 -172.09579 77.233482 -0.41845343 -0.3505218 0.63694185 0.83884662
60.259487 -172.06033 77.204552 -0.41845343 -0.3505218 0.63694185 0.83884662
60.523758 -172.97786 84.692474 -0.063614279 -0.0052184574 -0.52772391 0.53156984
60.533382 -173.0052 84.655098 0.1645852 0.15953909 -0.73828667 0.77305126
60.522652 -172.974 84.69767 -0.063614279 -0.0052184574 -0.52772391 0.53156984
41.267323 -178.51509 84.660255 0.53967363 0.01982004 -0.49579599 0.73311263
41.128212 -178.42656 84.624161 0.75742638 0.17858467 -0.51030833 0.93059218
41.131691 -178.4427 84.588371 0.75742638 0.17858467 -0.51030833 0.93059218
40.722771 -176.59009 75.313919 0.11761365 -0.59766293 0.49085361 0.78228593
40.730396 -176.61676 75.309761 0.11761365 -0.59766293 0.49085361 0.78228593
59.9212 -172.13739 77.142754 0.54452509 0.46276635 -0.28651297 0.76990259
41.580883 -178.2917 85.307434 0.16854358 0.11926783 -0.654697 0.68648374
41.563915 -178.21976 85.315956 0.23400405 -0.10045765 -0.69026232 0.73573893
41.488853 -178.32033 85.353012 0.27353087 -0.021950647 -0.65703392 0.71203548
60.242588 -172.95663 85.348404 0.39817756 0.3760412 -0.27542955 0.61303651
60.149319 -172.98097 85.302864 0.49681944 -0.45288604 -0.36077735 0.76295191
59.521873 -168.4072 76.317871 0.40659213 0.56010371 -0.65170133 0.95065659
57.143135 -172.72935 81.528824 0.80908632 0.052883662 -0.22975974 0.84273773
57.209793 -172.63036 81.00267 0.051960915 0.0093316585 0.53474873 0.53734833
50.694675 -175.23505 80.667503 -0.46469113 0.29999664 0.19402036 0.58615673
50.711178 -175.33932 80.52816 -0.50013828 -0.14958967 0.36056083 0.63444424
50.852551 -175.40649 83.346092 -0.55372113 0.0064238235 0.37863678 0.67083097
50.692322 -174.9603 80.573631 -0.31237745 0.087605402 0.48001808 0.57937187
50.652119 -174.97176 80.573639 -0.31237745 0.087605402 0.48001808 0.57937187
50.710163 -174.95309 80.573868 -0.31237745 0.087605402 0.48001808 0.57937187
41.586723 -178.31445 85.304153 0.16854358 0.11926783 -0.654697 0.68648374
50.128754 -176.81351 85.232727 0.59539664 0.23108363 -0.31892532 0.71386987
50.178005 -176.80205 85.232391 0.59539664 0.23108363 -0.31892532 0.71386987
50.10405 -176.54344 85.26075 0.64263093 0.014407814 -0.085376322 0.6484375
52.037556 -175.99588 85.259773 -0.27251494 -0.0017761663 0.71710926 0.76714617
52.061375 -176.26382 85.23188 -0.84055245 0.11813635 0.22588131 0.87835467
50.017605 -176.43687 85.15609 0.5895288 -0.35480201 -0.64373195 0.94224173
50.047207 -176.42493 85.156334 0.58156538 -0.21133867 -0.73202825 0.95851326
52.005669 -175.86819 85.155602 0.5823034 -0.31105912 -0.58998942 0.88539404
52.099224 -176.26016 85.230804 -0.84055245 0.11813635 0.22588131 0.87835467
52.091259 -176.26289 85.230751 -0.84055245 0.11813635 0.22588131 0.87835467
52.091209 -176.36823 85.096924 -0.26578444 -0.14899668 0.48394784 0.57188016
52.063385 -176.27087 85.230782 -0.84055245 0.11813635 0.22588131 0.87835467
50.155659 -176.8165 85.231239 0.59539664 0.23108363 -0.31892532 0.71386987
50.180134 -176.80951 85.231239 0.59539664 0.23108363 -0.31892532 0.71386987
50.147457 -176.81839 85.231285 0.59539664 0.23108363 -0.31892532 0.71386987
50.130981 -176.82129 85.231522 0.59539664 0.23108363 -0.31892532 0.71386987
59.456306 -168.42555 76.317787 -0.078414232 0.29492921 -0.65494239 0.72255218
40.804653 -176.57593 75.314384 -0.47697967 -0.39077508 0.59839821 0.85924107
49.964813 -176.0405 78.040848 -0.13018087 0.28871343 0.59341592 0.67264026
49.829956 -175.96645 78.042519 -0.61660957 0.11097477 -0.015937239 0.62671906
49.843094 -175.84634 77.157455 -0.47594702 -0.27560371 0.5335449 0.76625919
49.876526 -175.92892 77.019249 -0.51517057 0.078521892 -0.014392912 0.52131909
49.766483 -175.8567 77.083351 -0.55239564 0.23152362 -0.083404928 0.6047318
49.846165 -175.92821 76.972473 -0.457041 0.43146047 -0.15206668 0.64665979
49.827091 -175.76024 75.641403 0.19725859 -0.14561707 -0.5251202 0.5795399
49.792328 -175.62347 75.505463 0.12566853 -0.21603301 -0.61725199 0.66593009
49.826706 -175.75891 75.630692 0.19725859 -0.14561707 -0.5251202 0.5795399
49.849495 -175.75378 75.630531 0.19725859 -0.14561707 -0.5251202 0.5795399
49.404453 -174.71973 75.602989 -0.810314 0.37233004 0.25544944 0.92762756
49.403503 -174.71649 75.524063 -0.30045295 0.42576841 -0.10919642 0.53242332
49.780949 -175.56322 75.495743 0.18041632 -0.12168306 -0.50683033 0.55157393
49.625 -175.06758 75.46196 -0.4760637 -0.3946051 0.40672654 0.7401191
49.624313 -175.06561 75.44902 -0.4760637 -0.3946051 0.40672654 0.7401191
49.485245 -174.98085 75.324661 -0.4716174 0.18476412 0.36770976 0.6259163
49.390995 -174.66882 75.53035 -0.17621921 0.7669332 -0.10310414 0.79364365
49.391819 -174.6718 75.584969 -0.23695038 0.61769998 0.02968359 0.66225362
49.392651 -174.67476 75.608917 -0.28906363 0.54664743 -0.11920392 0.62975454
42.415897 -175.87048 75.572845 0.089245647 0.20205867 -0.64085388 0.67785412
51.689369 -174.36815 75.486053 0.68024623 -0.39024818 -0.18392476 0.80551654
51.764385 -175.05946 75.50499 0.55501413 -0.18626501 0.094049007 0.5929423
51.742157 -175.00227 75.495255 -0.65296924 -0.15270132 0.66535223 0.94465876
51.880478 -175.34639 76.971962 -0.029415101 -0.093566403 0.53414267 0.543073
51.929081 -175.23039 77.048035 0.24683526 -0.34086335 0.37257344 0.56207335
51.807247 -175.19389 75.640915 0.87098396 -0.090035282 -0.31248417 0.92971271
51.80687 -175.19258 75.630196 0.87098396 -0.090035282 -0.31248417 0.92971271
51.782181 -175.12685 75.535698 0.64136583 -0.1688948 -0.15394053 0.68086213
51.870846 -175.05775 75.635849 0.86458194 -0.03410577 -0.42420661 0.96364743
58.157639 -171.27596 75.697861 -0.13560829 -0.39870876 0.42383772 0.59749198
58.163033 -171.27299 75.692024 -0.13560829 -0.39870876 0.42383772 0.59749198
40.619095 -176.10281 75.631714 0.10969377 0.50439751 0.014616996 0.51639444
60.312706 -170.6326 82.478058 -0.65746677 0.17756933 -0.16962373 0.70183021
60.24316 -170.24141 81.522148 0.77945721 -0.14611617 -0.54931504 0.96470225
60.178074 -170.01546 79.678139 -0.079969049 -0.031122446 -0.72278261 0.72785872
60.149681 -169.91687 78.873589 0.70977104 -0.07484138 -0.30230433 0.77508968
40.050934 -176.01651 81.527122 0.31396997 -0.26306152 0.38057753 0.55912232
40.079334 -176.11508 82.331657 -0.28586617 -0.30928701 0.73688793 0.84875304
39.957462 -175.69197 78.878563 0.20077449 -0.22797535 -0.39754754 0.50032711
39.985859 -175.79056 79.683113 0.83371454 -0.38358206 -0.20817941 0.94103873
60.315781 -171.32773 78.49691 0.7962178 0.10100298 -0.51027977 0.95107824
40.342869 -177.24036 79.489822 -0.62063324 0.15971051 -0.10742614 0.64979494
39.712116 -176.77698 76.52449 0.52024597 -0.074251935 0.018902272 0.52585787
62.036701 -174.26505 84.115036 -0.45762038 0.21082614 -0.041554838 0.50555998
62.497211 -171.96991 85.57399 0.61846977 0.29084849 -0.18579805 0.7082504
62.498302 -171.97375 85.605247 0.61846977 0.29084849 -0.18579805 0.7082504
38.358208 -175.845 76.176788 0.67059422 -0.17285463 -0.60981393 0.92273957
39.396183 -173.90999 76.52121 0.66776198 -0.47643381 -0.27168104 0.86412144
39.259979 -173.91922 76.408012 0.038216338 -0.41576415 0.31533661 0.52321839
56.75457 -174.6543 84.722153 -0.17188337 0.14022104 0.49819672 0.54534924
47.160511 -177.15889 78.512695 0.180121 -0.41823393 0.60926676 0.76063734
40.382896 -177.12079 78.748001 0.35705113 -0.35717124 -0.23301822 0.55619627
59.845238 -172.16389 77.170753 -0.064214654 -0.39047477 0.54410768 0.67279059
43.199802 -178.11382 84.885468 -0.27388066 0.35482699 0.4473868 0.63329911
43.150257 -178.11774 84.894493 -0.62113464 0.10078901 0.1849755 0.65588307
41.290119 -178.48438 85.21785 0.4036175 -0.40969846 0.062646613 0.57851923
41.33881 -178.47588 85.218132 0.4687708 -0.45148158 0.00097800791 0.6508323
58.974754 -172.95212 85.266876 0.71608579 -0.026591204 -0.2433209 0.75676352
59.002434 -172.8967 85.293129 0.75504231 0.077306859 -0.23744123 0.79526323
51.616463 -174.08987 75.358643 0.24873024 -0.39612082 0.18436785 0.50276232
50.633575 -174.97504 80.573875 -0.31237745 0.087605402 0.48001808 0.57937187
49.739628 -176.93785 85.37648 0.24445178 -0.31504971 -0.45865232 0.60776222
42.899994 -176.85461 75.660675 0.7877357 -0.056558743 -0.49994808 0.93470556
39.656994 -173.91275 76.545601 -0.72141612 0.41719341 -0.062082991 0.83567089
59.414871 -168.27354 76.628845 0.77900076 -0.33321103 -0.4477433 0.95830363
59.466038 -168.25891 76.628838 0.50321555 -0.47517651 0.26602712 0.74147761
57.339775 -171.62366 76.578064 -0.80393946 0.55130178 -0.088009119 0.97877365
60.592365 -171.77466 81.318817 0.58844686 -0.19921665 -0.69708455 0.93374723
42.492188 -177.56775 84.977409 0.26348865 -0.41738543 -0.50994515 0.70970482
42.493988 -177.5643 84.956833 0.26348865 -0.41738543 -0.50994515 0.70970482
42.510254 -177.60966 85.276138 0.19801596 -0.48380512 -0.30458343 0.60501963
42.509174 -177.61279 85.295593 0.19801596 -0.48380512 -0.30458343 0.60501963
39.905018 -175.51189 76.913269 -0.63504469 -0.099707015 0.76202857 0.99695075
40.35955 -176.94933 78.520065 0.36556751 -0.18099266 -0.40033907 0.57154989
60.078514 -169.66992 76.917503 0.12373091 0.08697556 -0.73578405 0.75116724
60.045441 -169.55545 76.135742 0.24358074 -0.27861828 -0.61095273 0.71429896
40.57375 -175.54416 76.659973 0.18196198 0.30828449 -0.6128006 0.70969999
40.55489 -175.50766 76.419952 -0.1061292 -0.38481513 0.3941589 0.56098783
61.778168 -173.36739 76.78936 0.40235355 0.21485254 -0.64772463 0.79221034
60.257137 -172.05212 77.197983 -0.68823445 0.23760365 0.62958086 0.96254569
41.127193 -178.42297 84.628944 0.75742638 0.17858467 -0.51030833 0.93059218
41.344391 -177.10081 80.330521 0.61508602 -0.023508579 -0.010398969 0.61562294
50.836891 -175.30331 80.528137 -0.55380279 -0.021235883 0.5652253 0.7915985
60.411663 -172.90828 85.348358 0.32897273 -0.84079045 0.16962221 0.91865301
52.012463 -175.86638 85.155617 0.5823034 -0.31105912 -0.58998942 0.88539404
42.551971 -177.60941 84.971329 0.34346431 -0.25695607 -0.61244714 0.7477203
40.951813 -177.74611 84.997971 0.73674774 -0.34238803 -0.24078049 0.84735
51.612728 -174.09344 75.305817 0.34102529 -0.17168361 0.32299381 0.50009853
58.317181 -171.7632 75.174965 0.0010366738 0.10285057 0.56818312 0.57741785
43.19043 -175.6604 76.549591 -0.52406293 -0.12542243 0.80786282 0.9710896
60.402729 -172.16685 84.950035 -0.52289021 -0.018061757 -0.10437456 0.5335114
60.458511 -172.10234 84.91082 -0.50037628 0.3611469 0.12529609 0.62968451
60.22126 -172.0407 84.923508 -0.61464143 -0.11147531 0.54279286 0.82754749
60.19186 -172.14182 84.962807 -0.78135294 -0.14649306 0.45510548 0.91602051
39.886391 -175.44498 76.92247 0.49269438 -0.35090703 0.0098204911 0.60496277
40.095955 -176.17484 82.323517 -0.61773354 -0.18040733 0.66572595 0.92592257
40.002483 -175.8503 79.674965 -0.4023315 0.10703816 0.74963307 0.85748327
58.999435 -172.8945 85.271996 0.75504231 0.077306859 -0.23744123 0.79526323
40.050339 -176.18587 82.311058 -0.61773354 -0.18040733 0.66572595 0.92592257
60.464886 -172.01622 78.071205 -0.44715348 0.21552236 0.58719528 0.76889169
60.204292 -171.38098 78.437645 0.61649209 -0.056621686 -0.523229 0.81057829
40.120693 -176.43015 84.304573 0.59742254 -0.40438372 0.039028957 0.72247016
40.165428 -176.41603 84.292007 0.54719412 0.022326875 -0.56752199 0.78867048
39.95686 -175.86133 79.662514 -0.4023315 0.10703816 0.74963307 0.85748327
60.235207 -170.05095 79.656082 -0.42657962 0.37072527 -0.15875188 0.58703452
60.238846 -170.06316 79.657303 -0.42657962 0.37072527 -0.15875188 0.58703452
60.239361 -170.06432 79.667221 -0.42657962 0.37072527 -0.15875188 0.58703452
60.706039 -171.66165 81.334305 0.7842145 -0.30993727 0.043460704 0.8443591
39.959816 -175.8644 79.672119 -0.4023315 0.10703816 0.74963307 0.85748327
39.956257 -175.85081 79.66098 -0.4023315 0.10703816 0.74963307 0.85748327
60.63945 -171.45023 79.535919 0.41164681 0.22774661 -0.27994007 0.54743773
39.393185 -173.8996 76.436295 0.64455515 -0.39307195 -0.34635794 0.83061469
52.814659 -176.28889 84.47319 0.76112247 0.18712765 -0.36778411 0.86578828
60.543995 -171.3546 78.743034 -0.77564192 0.32946438 0.51803863 0.98920733
60.310932 -171.22667 78.455635 0.43789038 -0.58106321 0.24338394 0.76721454
60.290844 -171.23257 78.454796 0.60967481 -0.035371989 -0.52244365 0.80368024
40.624401 -176.12119 75.842285 0.63961291 -0.37337968 0.21433643 0.77101046
59.877251 -172.14633 77.132126 0.011289613 -0.39276147 0.55501616 0.68002349
41.32198 -178.3761 85.351898 0.35735798 0.32074398 -0.39757261 0.62341434
41.319855 -178.36867 85.35305 0.35735798 0.32074398 -0.39757261 0.62341434
41.271751 -178.38493 85.351585 0.46756852 -0.40606421 0.25648698 0.67029399
43.318508 -175.70786 76.533104 0.36527169 -0.26929119 0.51444554 0.68599957
60.336914 -170.56721 84.296494 -0.25995478 0.48125824 -0.064523697 0.55077153
58.315048 -171.75676 75.129646 0.0010366738 0.10285057 0.56818312 0.57741785
49.41016 -174.72339 75.306366 0.4145309 -0.019699197 -0.45585287 0.61646229
59.478676 -168.25589 76.631126 0.50321555 -0.47517651 0.26602712 0.74147761
60.333565 -170.38472 82.306068 -0.44242442 0.2503424 0.20976926 0.54992163
60.195126 -170.07509 79.670235 -0.42657962 0.37072527 -0.15875188 0.58703452
60.195534 -170.07494 79.669998 -0.42657962 0.37072527 -0.15875188 0.58703452
60.240097 -170.06018 79.657509 -0.42657962 0.37072527 -0.15875188 0.58703452
40.144894 -176.34225 84.30146 -0.77034831 0.23140275 0.17671268 0.82353574
43.243904 -175.65517 76.581497 -0.52530617 0.043841161 0.39373088 0.65794575
60.500237 -171.60641 81.355461 -0.070082873 -0.01393503 0.63765824 0.64164931
60.488392 -171.70415 81.291222 0.002394937 -0.28564653 0.79383755 0.84366918
60.545708 -171.73294 81.260208 0.023016892 -0.3790409 0.45777255 0.59477514
46.686657 -175.57826 79.004829 0.61105716 -0.52321142 -0.38966724 0.89385772
60.206173 -171.3802 78.43766 0.61649209 -0.056621686 -0.523229 0.81057829
49.583488 -176.02783 85.890221 0.13626364 0.44717556 -0.28133038 0.54560107
60.373947 -170.8466 82.602432 0.49112552 0.089404777 -0.60728991 0.78612882
62.03548 -174.26079 84.080315 -0.45762038 0.21082614 -0.041554838 0.50555998
47.085159 -177.17268 78.517632 0.180121 -0.41823393 0.60926676 0.76063734
47.125954 -177.16531 78.515923 0.180121 -0.41823393 0.60926676 0.76063734
40.812263 -176.60254 75.310242 -0.47697967 -0.39077508 0.59839821 0.85924107
43.106659 -177.74313 85.364212 -0.36966097 0.31240565 0.6430313 0.80482036
49.850941 -177.11816 85.668716 -0.61222172 -0.26894176 0.43593475 0.79823816
49.521652 -176.03107 85.831383 -0.76485312 0.16589206 0.58043146 0.97438246
50.012821 -176.43829 85.156097 0.5895288 -0.35480201 -0.64373195 0.94224173
58.381962 -172.39723 75.59597 0.37228274 -0.27896383 -0.71779728 0.85536438
61.863941 -173.66519 79.219681 0.34925514 0.21357143 -0.47518554 0.62721068
61.779392 -173.37164 76.824074 0.40235355 0.21485254 -0.64772463 0.79221034
42.833992 -176.79008 75.622681 0.27598605 0.42299771 -0.0049988627 0.50509441
41.270863 -178.37985 85.352257 0.46756852 -0.40606421 0.25648698 0.67029399
52.04842 -175.993 85.259773 -0.27251494 -0.0017761663 0.71710926 0.76714617
51.61578 -174.0873 75.60244 0.28014374 -0.39969882 0.1691857 0.51658827
51.60239 -174.04446 75.364708 0.24873024 -0.39612082 0.18436785 0.50276232
51.597813 -174.04524 75.312454 0.35905319 -0.077049278 -0.52141947 0.63775706
60.468014 -172.02716 78.06974 -0.44715348 0.21552236 0.58719528 0.76889169
60.47139 -172.03696 78.068413 -0.44715348 0.21552236 0.58719528 0.76889169
49.478344 -174.53313 75.51152 -0.075004041 0.55306435 0.067336872 0.56217438
49.391113 -174.66922 75.516777 0.056103855 0.52631569 0.19376895 0.56365079
49.397339 -174.67458 75.312996 0.62354803 -0.080545835 -0.44757396 0.77176565
