49.2874 -180.569 80.0828 -0.194643 0.972719 0.126218
49.3291 -180.714 81.2632 -0.199149 0.97191 0.125422
48.2407 -180.933 81.2747 -0.197068 0.972334 0.125423
48.1991 -180.789 80.0942 -0.19336 0.973048 0.125659
49.2445 -180.42 78.8676 -0.198024 0.971314 0.131663
49.2862 -180.565 80.048 -0.196827 0.972062 0.127885
48.1979 -180.785 80.0595 -0.191434 0.973449 0.125501
48.1562 -180.64 78.8791 -0.190008 0.973466 0.127515
49.2016 -180.271 77.6525 -0.193808 0.973122 0.124388
49.2433 -180.416 78.8329 -0.193923 0.973118 0.124242
48.155 -180.636 78.8444 -0.191413 0.973839 0.122466
48.1133 -180.491 77.6639 -0.196875 0.972751 0.122457
49.1587 -180.122 76.4373 -0.192991 0.970061 0.147429
49.2004 -180.267 77.6177 -0.1958 0.972372 0.127104
48.1121 -180.487 77.6292 -0.19516 0.973097 0.122456
48.0704 -180.342 76.4488 -0.190149 0.973429 0.127589
48.0692 -180.338 76.4141 -0.191909 0.973222 0.126527
48.0275 -180.193 75.2324 -0.191002 0.939147 0.28552
49.1225 -179.996 75.4096 -0.240726 0.950814 0.194945
49.1575 -180.118 76.4026 -0.192337 0.970499 0.145388
50.5302 -180.633 82.501 -0.19508 0.972748 0.125322
50.5718 -180.777 83.6814 -0.199076 0.97813 0.0602487
49.4076 -180.86 82.5127 -0.199203 0.971402 0.129212
50.4958 -180.64 82.5013 -0.193403 0.972663 0.128536
50.5374 -180.784 83.6818 -0.198828 0.978605 0.0529037
49.4492 -181.004 83.6932 -0.201263 0.975307 0.0909435
49.4063 -180.856 82.478 -0.195919 0.972515 0.125822
49.3647 -180.711 81.2976 -0.200071 0.971517 0.12699
50.4529 -180.491 81.2862 -0.190306 0.973812 0.124391
50.4945 -180.635 82.4666 -0.195441 0.972422 0.127275
50.41 -180.342 80.071 -0.193764 0.97256 0.128772
50.4516 -180.486 81.2514 -0.193201 0.972561 0.129613
49.3635 -180.707 81.2628 -0.199057 0.971902 0.125627
49.3218 -180.562 80.0824 -0.195496 0.97261 0.125742
49.3206 -180.558 80.0477 -0.193509 0.972666 0.128355
49.2789 -180.413 78.8673 -0.19551 0.972822 0.124071
50.3671 -180.193 78.8559 -0.196625 0.972132 0.127661
50.4088 -180.337 80.0363 -0.199139 0.972315 0.122258
52.2423 -180.453 83.6974 -0.266458 0.963821 -0.00696656
52.2554 -180.499 84.0681 -0.270553 0.954766 -0.12338
51.7137 -180.617 84.1785 -0.288294 0.869738 -0.400552
51.6969 -180.559 83.7038 -0.227145 0.971295 -0.0706466
51.4813 -179.81 77.5932 -0.23159 0.964551 0.126521
51.4396 -179.665 76.4128 -0.225887 0.965317 0.130912
51.985 -179.56 76.4065 -0.283648 0.949776 0.132173
52.0267 -179.704 77.5869 -0.276655 0.95242 0.127896
47.351 -177.946 85.3507 -0.23184 0.91453 0.331489
47.402 -181.058 84.9424 0.0125202 0.303273 -0.952821
48.1764 -180.833 84.9172 -0.281395 0.931379 -0.230975
47.5374 -181.532 84.8465 -0.192198 0.971502 -0.138719
48.331 -181.373 84.8078 -0.14895 0.982231 -0.114178
47.2415 -181.589 84.8518 -0.221354 0.967019 -0.126004
47.1135 -181.141 84.9425 -0.128474 0.486795 -0.864017
51.6195 -180.416 82.489 -0.224806 0.965439 0.131871
51.6612 -180.561 83.6694 -0.224359 0.974432 0.0120416
51.1907 -178.917 82.6526 -0.2266 0.965966 0.124746
50.1086 -179.285 83.8806 -0.162327 0.963568 0.21257
51.5241 -179.959 78.8084 -0.230585 0.964421 0.129316
51.4825 -179.814 77.628 -0.228483 0.964587 0.131783
52.0279 -179.709 77.6216 -0.279025 0.951932 0.126373
52.0695 -179.853 78.8021 -0.279964 0.950241 0.136611
52.5466 -179.51 77.6277 -0.318029 0.94003 0.123289
52.5883 -179.654 78.8081 -0.31913 0.939357 0.125554
50.529 -180.628 82.4662 -0.194999 0.972205 0.129584
50.4873 -180.484 81.2858 -0.19026 0.973643 0.125777
51.5767 -180.268 81.2738 -0.226682 0.964679 0.134203
51.6183 -180.412 82.4543 -0.227367 0.9668 0.116626
50.0565 -178.977 81.4506 -0.189064 0.973886 0.125699
51.1478 -178.768 81.4374 -0.220934 0.967703 0.121405
51.567 -180.108 80.0236 -0.227838 0.966884 0.115001
51.5254 -179.963 78.8431 -0.2319 0.963821 0.131424
52.0708 -179.858 78.8368 -0.279672 0.952369 0.121558
52.1124 -180.002 80.0172 -0.295745 0.945159 0.138597
52.5895 -179.659 78.8429 -0.318452 0.938168 0.13575
52.6312 -179.803 80.0233 -0.320047 0.938497 0.129586
51.5338 -180.119 80.0587 -0.226502 0.965542 0.12816
51.5754 -180.263 81.2391 -0.226109 0.96604 0.125063
50.4861 -180.479 81.2511 -0.18826 0.973415 0.130465
50.4444 -180.335 80.0706 -0.193995 0.972712 0.127272
50.0136 -178.828 80.2354 -0.188333 0.972965 0.133676
51.1049 -178.619 80.2223 -0.228899 0.96951 -0.0874924
51.6099 -180.257 81.2387 -0.225587 0.966455 0.122784
51.5683 -180.112 80.0583 -0.228353 0.965418 0.125792
52.1137 -180.006 80.052 -0.275878 0.952671 0.127712
52.1553 -180.151 81.2324 -0.262267 0.955586 0.134429
52.6324 -179.808 80.058 -0.317491 0.938923 0.132752
52.674 -179.952 81.2385 -0.323366 0.937976 0.125041
50.4432 -180.331 80.0359 -0.199318 0.972476 0.120674
50.4015 -180.186 78.8555 -0.194077 0.972658 0.127554
51.4909 -179.97 78.8435 -0.226504 0.964261 0.137463
51.5326 -180.114 80.024 -0.232801 0.965278 0.118502
51.6528 -180.405 82.4539 -0.227483 0.966523 0.118684
51.6111 -180.261 81.2734 -0.231927 0.963787 0.131625
52.1565 -180.155 81.2671 -0.271469 0.954088 0.126577
52.1982 -180.3 82.4476 -0.267792 0.954813 0.128916
52.6753 -179.956 81.2732 -0.31819 0.939835 0.124359
52.7169 -180.101 82.4536 -0.317354 0.94114 0.116372
51.6957 -180.554 83.669 -0.225315 0.974271 0.0054606
51.654 -180.41 82.4886 -0.226675 0.965307 0.129615
52.1994 -180.304 82.4823 -0.265949 0.95621 0.122206
52.2411 -180.449 83.6627 -0.263902 0.964547 -0.00212797
52.7181 -180.105 82.4883 -0.32143 0.93844 0.12654
52.7598 -180.25 83.6688 -0.323774 0.946133 0.00156485
51.2681 -179.059 83.8674 -0.223194 0.961078 0.162829
51.2264 -178.914 82.6869 -0.224974 0.965533 0.130891
49.3917 -176.598 80.5158 0.607114 0.754373 0.249667
49.5269 -177.071 80.5934 -0.87938 0.277268 -0.387058
49.5054 -176.995 81.082 0.0719826 0.408244 -0.91003
49.4507 -176.802 83.2859 -0.32198 0.746496 -0.582299
49.5859 -177.275 83.3635 0.43999 -0.0525037 -0.896467
52.6152 -175.472 75.6854 0.109151 0.476107 -0.872587
53.3668 -175.166 75.6722 -0.0253474 0.108638 -0.993758
54.2849 -178.377 75.19 -0.289867 0.931206 0.220982
53.5134 -178.613 75.2136 -0.289839 0.914159 0.283385
53.6468 -175.054 75.6766 -0.0444235 0.206979 -0.977336
53.6485 -175.056 75.7028 -0.0444235 0.206979 -0.977336
54.1731 -176.891 75.4273 -0.865725 0.250628 -0.43325
54.1728 -176.893 75.4003 -0.865725 0.250628 -0.43325
54.2805 -175.08 77.7439 -0.131015 0.460066 -0.878166
54.7822 -176.322 77.574 -0.533538 0.838884 -0.107751
54.7089 -176.067 75.4966 -0.168531 0.474297 0.864083
54.2081 -174.829 75.693 -0.00289095 0.535172 -0.844738
55.348 -176.847 78.3744 -0.823675 0.453958 0.339826
54.8152 -174.984 78.6215 0.0263772 0.437529 -0.898817
54.8479 -174.971 78.6219 0.0203725 0.435816 -0.899805
55.3816 -176.837 78.3744 0.0677282 0.947785 0.311636
52.6851 -175.841 78.5917 0.343042 0.604082 -0.71931
52.7177 -175.828 78.5922 0.332825 0.642452 -0.690277
53.2404 -177.656 78.3498 -0.361051 0.924627 0.121271
55.3728 -176.933 79.0783 -0.303562 0.767335 0.564843
54.3359 -177.333 79.0662 -0.356106 0.923142 0.144905
53.6071 -178.939 76.39 -0.348131 0.92101 0.174773
53.5789 -178.841 75.5902 -0.305738 0.916287 0.258733
54.6123 -178.43 75.4137 -0.290371 0.931698 0.218229
54.6472 -178.551 76.4009 -0.350541 0.925009 0.146559
55.4157 -177.082 80.2935 -0.357173 0.926944 0.114902
54.3788 -177.482 80.2814 -0.354484 0.926461 0.126538
54.4216 -177.631 81.4966 -0.358867 0.923981 0.132191
55.5015 -177.38 82.7238 -0.358805 0.925045 0.124701
54.4645 -177.78 82.7117 -0.357742 0.925894 0.121414
56.0102 -179.031 83.7035 -0.353333 0.927277 0.123745
55.5351 -177.37 82.7241 -0.356791 0.925739 0.125333
55.9685 -178.886 82.523 -0.357059 0.925573 0.125791
55.9673 -178.882 82.4883 -0.35534 0.926276 0.125488
55.4922 -177.222 81.5089 -0.357483 0.926076 0.120786
55.9256 -178.737 81.3079 -0.354824 0.927009 0.121468
55.9244 -178.733 81.2732 -0.354824 0.927009 0.121468
55.4494 -177.073 80.2937 -0.35531 0.923185 0.146574
55.8828 -178.588 80.0927 -0.351663 0.926994 0.130445
56.4863 -176.673 80.3058 -0.347232 0.927538 0.138215
55.8815 -178.584 80.058 -0.348713 0.928872 0.124882
55.4065 -176.924 79.0786 -0.307314 0.760559 0.571933
55.8399 -178.439 78.8776 -0.353574 0.92687 0.126085
56.4434 -176.524 79.0906 -0.348692 0.929529 0.119953
53.2316 -177.751 79.0536 -0.350296 0.910827 0.218373
52.1947 -178.151 79.0416 -0.300927 0.893757 -0.332627
53.2745 -177.9 80.2688 -0.356875 0.924475 0.134113
52.2376 -178.3 80.2567 0.0429887 -0.107899 -0.993232
53.3174 -178.049 81.4839 -0.357016 0.925868 0.123724
52.2805 -178.449 81.4719 -0.325374 0.935918 0.134869
52.3233 -178.598 82.687 -0.322173 0.935928 0.142281
53.8644 -179.833 83.6809 -0.351014 0.934267 0.0627263
53.3939 -178.189 82.6994 -0.358231 0.925684 0.121574
53.8227 -179.688 82.5005 -0.349225 0.928493 0.126266
53.8215 -179.684 82.4658 -0.349241 0.928892 0.123248
53.3511 -178.04 81.4842 -0.35649 0.925554 0.127533
53.7798 -179.539 81.2853 -0.352305 0.927106 0.12789
54.388 -177.64 81.4963 -0.355625 0.926443 0.123424
53.7786 -179.535 81.2506 -0.353548 0.926687 0.127496
53.3082 -177.891 80.2691 -0.357151 0.922812 0.144433
53.737 -179.39 80.0702 -0.351 0.928139 0.123921
54.3451 -177.491 80.2811 -0.354476 0.926994 0.122591
53.7357 -179.386 80.0355 -0.350965 0.927858 0.12611
53.2653 -177.742 79.0539 -0.351624 0.921669 0.163972
53.6941 -179.241 78.855 -0.349353 0.928494 0.125905
54.3022 -177.342 79.066 -0.356448 0.923676 0.1406
57.0061 -178.489 82.5351 -0.359981 0.923962 0.12926
57.0478 -178.634 83.7155 -0.356443 0.93142 0.0735175
56.9633 -178.34 81.3199 -0.361721 0.924062 0.123562
57.0049 -178.485 82.5004 -0.359828 0.923991 0.129475
56.9204 -178.191 80.1048 -0.360626 0.92334 0.131881
56.962 -178.336 81.2852 -0.358387 0.925199 0.124764
56.8775 -178.042 78.8896 -0.361928 0.92422 0.12176
56.9191 -178.187 80.07 -0.360058 0.924563 0.124663
54.8628 -179.3 82.5114 -0.344962 0.930033 0.126647
54.9045 -179.444 83.6918 -0.351047 0.931523 0.0950265
54.8199 -179.151 81.2962 -0.354627 0.926699 0.124374
54.8616 -179.295 82.4767 -0.347238 0.93007 0.119983
54.7771 -179.002 80.0811 -0.348848 0.929089 0.12288
54.8187 -179.146 81.2615 -0.348144 0.929042 0.125204
54.7342 -178.853 78.8659 -0.353945 0.926577 0.127195
54.7758 -178.998 80.0463 -0.351077 0.927871 0.125698
54.2164 -177.045 76.6356 -0.354415 0.925407 0.134208
53.1795 -177.444 76.6236 -0.354483 0.925357 0.134376
53.1783 -177.44 76.5888 -0.354975 0.922772 0.14995
54.2152 -177.04 76.6015 -0.354067 0.924965 0.138116
52.664 -179.791 80.0237 -0.316651 0.940376 0.124195
52.6223 -179.646 78.8432 -0.320005 0.938385 0.130498
53.6612 -179.254 78.8547 -0.349307 0.928514 0.125882
53.7029 -179.398 80.0351 -0.35 0.927516 0.131203
53.7041 -179.402 80.0698 -0.349189 0.928583 0.1257
53.7458 -179.547 81.2503 -0.351125 0.927808 0.126027
52.7069 -179.94 81.2388 -0.320321 0.938447 0.129274
52.6652 -179.795 80.0584 -0.314798 0.939321 0.136301
52.7497 -180.089 82.454 -0.319501 0.939684 0.122116
52.7081 -179.944 81.2736 -0.31819 0.939835 0.124359
53.747 -179.551 81.285 -0.351249 0.927558 0.127516
53.7886 -179.696 82.4654 -0.35141 0.927464 0.127756
52.751 -180.093 82.4887 -0.321913 0.937992 0.12862
53.7899 -179.7 82.5002 -0.34735 0.929647 0.1229
53.8315 -179.845 83.6806 -0.353638 0.933295 0.0624546
52.7926 -180.238 83.6692 -0.322392 0.946602 0.00296314
52.7939 -180.242 83.7039 -0.320825 0.943906 -0.0781883
53.8327 -179.849 83.7153 -0.358581 0.93206 0.0518065
53.8567 -179.932 84.3933 -0.291689 0.884851 -0.363259
52.8108 -180.301 84.185 -0.272729 0.882026 -0.384251
53.65 -179.088 77.6051 -0.347483 0.928584 0.130334
53.6083 -178.943 76.4247 -0.350356 0.919953 0.175888
54.6484 -178.555 76.4356 -0.350534 0.924991 0.146687
54.6901 -178.7 77.616 -0.351778 0.927513 0.126379
54.2593 -177.193 77.8508 0.0527095 -0.0952946 -0.994053
53.2224 -177.593 77.8387 -0.356318 0.925863 0.125759
53.2212 -177.589 77.804 -0.357746 0.932634 0.0470229
54.2581 -177.189 77.8166 0.0295319 -0.0432351 -0.998628
54.6913 -178.704 77.6507 -0.351014 0.928234 0.123166
54.733 -178.849 78.8312 -0.350805 0.927958 0.125817
53.6929 -179.237 78.8203 -0.345631 0.930054 0.124651
53.6512 -179.092 77.6399 -0.352666 0.926571 0.130738
52.6211 -179.642 78.8085 -0.319027 0.939076 0.127898
52.1518 -178.002 77.8264 -0.226152 0.681692 -0.69581
52.5794 -179.497 77.6281 -0.31775 0.939612 0.12714
52.5782 -179.493 77.5934 -0.319596 0.939839 0.120666
52.1089 -177.853 76.6112 -0.0261006 0.094052 -0.995225
52.5365 -179.348 76.4129 -0.320632 0.938167 0.13053
53.146 -177.454 76.6233 -0.355638 0.92533 0.131476
53.6183 -179.105 77.6395 -0.349478 0.928258 0.127286
53.66 -179.249 78.82 -0.349307 0.928514 0.125882
53.5754 -178.956 76.4244 -0.354403 0.921173 0.160745
53.6171 -179.1 77.6048 -0.353021 0.927075 0.126129
53.9887 -179.175 84.9408 -0.0660961 0.264367 -0.962154
53.2225 -176.495 85.3432 0.0466029 0.978111 0.202796
54.1402 -179.705 84.8335 -0.200015 0.90621 -0.372529
54.4509 -174.74 80.915 -0.649109 -0.390277 -0.652948
54.2125 -174.15 80.9958 -0.594483 -0.386038 -0.705383
54.1604 -174.153 80.8643 -0.599479 -0.410385 -0.687175
54.0399 -174.209 80.9133 -0.591944 -0.387259 -0.706847
54.3336 -174.804 80.963 -0.676452 -0.403811 -0.615914
54.0919 -174.206 81.0448 -0.649649 -0.443374 -0.617556
54.293 -174.43 83.2773 -0.632142 0.625813 0.456896
54.2409 -174.433 83.1458 0.349792 -0.198783 -0.915495
54.1204 -174.488 83.1948 -0.630049 0.626856 0.458355
54.4141 -175.083 83.2445 -0.297014 0.618072 0.727853
54.1725 -174.485 83.3263 -0.630049 0.626856 0.458355
55.8957 -178.629 84.9403 -0.24567 0.933485 -0.261251
56.1843 -178.547 84.9403 -0.302307 0.934082 -0.190005
55.3533 -175.641 85.3767 -0.209384 0.921152 0.328081
55.0732 -175.753 85.3723 -0.312408 0.910676 0.270316
56.6859 -177.243 85.0744 -0.974634 -0.214308 0.0645026
56.6891 -177.251 85.0999 -0.973805 -0.217661 0.0657787
57.282 -178.233 84.94 -0.034218 0.513669 -0.857306
58.0373 -178.011 84.91 -0.439384 0.788395 -0.430553
56.8342 -175.036 85.3841 -0.0626349 0.831389 0.55215
57.4011 -178.65 84.8556 -0.396774 0.906537 -0.14409
58.1685 -178.335 84.8409 -0.332749 0.91576 -0.22508
56.9935 -178.315 84.94 -0.135633 0.378818 -0.915478
57.1206 -178.76 84.85 -0.365635 0.927134 -0.0820589
54.5447 -178.061 85.0465 -0.102273 0.539831 0.835538
54.5478 -178.069 85.072 -0.105034 0.545952 0.831207
54.7979 -178.943 84.9406 -0.0550928 0.193949 -0.979463
55.0865 -178.861 84.9405 -0.0217983 0.197201 -0.980121
57.5497 -176.766 83.9619 -0.3777 0.876733 0.297795
58.1306 -178.204 83.7653 -0.375188 0.922645 0.0892231
57.0818 -178.625 83.7506 -0.356972 0.933624 0.0302817
56.6486 -177.11 83.9516 -0.346464 0.928845 0.131184
57.5069 -176.617 82.7468 -0.398213 0.908096 0.129571
58.0877 -178.055 82.5501 -0.379687 0.916644 0.124908
57.0389 -178.476 82.5355 -0.359994 0.924654 0.124179
56.6057 -176.961 82.7364 -0.349604 0.927806 0.130201
57.464 -176.468 81.5316 -0.387668 0.91312 0.126197
58.0448 -177.906 81.335 -0.379384 0.916239 0.12874
56.996 -178.327 81.3203 -0.362047 0.923934 0.123562
56.5628 -176.813 81.5212 -0.346898 0.929427 0.125801
57.4211 -176.319 80.3164 -0.379287 0.917111 0.122675
58.0019 -177.757 80.1198 -0.381502 0.915418 0.128318
56.9531 -178.178 80.1052 -0.360164 0.924013 0.128379
56.5199 -176.664 80.3061 -0.348162 0.928663 0.12794
57.3782 -176.171 79.1013 -0.475247 0.844594 0.246578
57.959 -177.608 78.9046 -0.376284 0.91805 0.124879
56.9102 -178.03 78.89 -0.362144 0.922862 0.131063
56.4771 -176.515 79.0909 -0.349922 0.927315 0.132823
57.3353 -176.022 77.8861 -0.614162 0.785273 0.0784249
57.9161 -177.459 77.6895 -0.383565 0.914239 0.130554
56.8673 -177.881 77.6748 -0.362707 0.92336 0.125894
56.4342 -176.366 77.8757 -0.315739 0.946223 0.0705035
57.2924 -175.873 76.671 -0.374062 0.882071 0.286406
57.8733 -177.31 76.4743 -0.385551 0.912374 0.137567
56.8245 -177.732 76.4597 -0.364434 0.922339 0.128366
56.3913 -176.217 76.6606 -0.343769 0.930903 0.12346
57.014 -175.141 75.5301 -0.408532 0.453082 0.79235
57.8289 -177.156 75.2178 -0.376132 0.917192 0.131467
57.4535 -177.31 75.2114 0.0603661 0.6743 0.735986
56.8518 -175.206 75.5275 -0.324611 0.834197 0.445806
56.39 -176.213 76.6259 -0.35052 0.92756 0.129492
56.3486 -176.069 75.4507 -0.326985 0.804368 0.496058
56.7808 -177.58 75.2237 0.33101 -0.196269 -0.92299
56.8232 -177.728 76.425 -0.358787 0.924923 0.125657
56.1465 -175.489 75.5163 -0.302646 0.805129 0.510072
56.148 -175.492 75.5399 -0.302646 0.805129 0.510072
56.3143 -176.073 75.4525 -0.324906 0.803567 0.498714
56.3141 -176.076 75.4283 -0.387656 0.586551 0.711112
55.8386 -178.435 78.8428 -0.352457 0.927263 0.126326
55.797 -178.29 77.6624 -0.349434 0.927978 0.129433
56.8346 -177.893 77.6744 -0.362926 0.923393 0.125021
56.8763 -178.038 78.8549 -0.360095 0.924936 0.12176
56.4005 -176.375 77.8755 -0.316891 0.945828 0.0706402
55.3636 -176.775 77.8634 -0.185933 0.590468 -0.785351
55.3624 -176.771 77.8287 -0.175645 0.56202 -0.808259
56.3993 -176.371 77.8413 -0.326756 0.943313 0.0582279
55.7958 -178.286 77.6277 -0.3489 0.928616 0.126257
55.7541 -178.142 76.4472 -0.35141 0.927382 0.128346
56.7917 -177.745 76.4593 -0.357297 0.926094 0.1212
56.8334 -177.889 77.6397 -0.362792 0.923288 0.12618
56.3576 -176.227 76.6603 -0.347281 0.929498 0.124216
55.3207 -176.626 76.6482 -0.348934 0.937105 -0.00893751
55.3195 -176.622 76.6135 -0.349019 0.937015 -0.0137595
56.8661 -177.876 77.6401 -0.360025 0.924112 0.128061
56.4329 -176.362 77.841 -0.3277 0.942883 0.0598686
56.909 -178.025 78.8553 -0.36194 0.923813 0.124773
56.4758 -176.511 79.0562 -0.345907 0.927243 0.143418
56.9519 -178.174 80.0704 -0.358338 0.925206 0.124853
56.5187 -176.659 80.2713 -0.347288 0.928409 0.132093
56.9948 -178.323 81.2856 -0.361601 0.924348 0.12176
56.5616 -176.808 81.4865 -0.348224 0.928507 0.128899
57.0377 -178.472 82.5008 -0.360075 0.923968 0.128955
56.6045 -176.957 82.7017 -0.347144 0.927996 0.135328
57.0805 -178.621 83.7159 -0.356445 0.931404 0.073714
56.6474 -177.106 83.9168 -0.345232 0.929234 0.13168
56.8176 -174.922 83.2805 0.768536 0.563633 -0.302772
57.872 -177.306 76.4396 -0.385357 0.911381 0.144511
57.2912 -175.868 76.6362 -0.374666 0.882622 0.283908
57.9149 -177.455 77.6548 -0.383274 0.915067 0.125513
57.3341 -176.017 77.8514 -0.627714 0.775378 -0.0690169
57.9578 -177.604 78.8699 -0.378426 0.916946 0.126505
57.377 -176.166 79.0666 -0.463166 0.859163 0.217524
58.0007 -177.753 80.0851 -0.3831 0.914886 0.127349
57.4199 -176.315 80.2817 -0.371938 0.919253 0.128981
58.0436 -177.902 81.3002 -0.376934 0.916973 0.130693
57.4628 -176.464 81.4969 -0.390851 0.912048 0.12411
58.0865 -178.05 82.5154 -0.378737 0.91682 0.126488
57.5056 -176.613 82.712 -0.397876 0.909124 0.123244
58.1293 -178.199 83.7306 -0.377483 0.921966 0.0865196
57.5485 -176.762 83.9272 -0.380428 0.875355 0.298375
54.9183 -179.491 84.8057 -0.259396 0.94275 -0.209611
54.7631 -178.949 84.9156 -0.0667412 0.207042 -0.976053
54.9057 -179.448 83.7265 -0.351085 0.931663 0.0935028
54.9365 -179.555 84.598 -0.303278 0.925629 -0.226347
56.9586 -178.321 84.9151 -0.288758 0.455818 -0.841932
56.3316 -179.063 84.8358 -0.305568 0.935404 -0.177898
57.0869 -178.77 84.8242 -0.367062 0.925381 -0.0945229
54.9386 -179.436 83.7269 -0.348462 0.932618 0.0937943
54.8957 -179.287 82.5117 -0.346976 0.929398 0.125804
55.9357 -178.898 82.5227 -0.355347 0.926054 0.127093
55.9773 -179.043 83.7031 -0.351533 0.928897 0.116509
54.9374 -179.432 83.6922 -0.352364 0.930927 0.0959907
54.8945 -179.283 82.477 -0.350679 0.928085 0.12523
54.8528 -179.138 81.2966 -0.35232 0.927143 0.127584
54.8516 -179.134 81.2618 -0.349504 0.927675 0.131401
54.81 -178.99 80.0814 -0.349162 0.928155 0.128896
55.8499 -178.601 80.0924 -0.349568 0.928742 0.123449
55.8916 -178.745 81.2728 -0.349589 0.928355 0.126268
54.8087 -178.985 80.0467 -0.351805 0.927476 0.126578
54.7671 -178.841 78.8663 -0.347764 0.928677 0.128917
55.807 -178.452 78.8772 -0.353607 0.926842 0.126197
55.8487 -178.596 80.0576 -0.353271 0.92667 0.128387
56.4871 -176.676 80.3057 -0.347217 0.929084 0.127451
54.723 -178.688 77.6164 -0.34846 0.92842 0.128888
54.2501 -177.035 76.6359 -0.353332 0.925972 0.133162
54.6813 -178.543 76.4359 -0.350018 0.924545 0.150679
54.7658 -178.836 78.8315 -0.350887 0.927476 0.129103
54.293 -177.184 77.8511 0.0712377 -0.137122 -0.987989
54.7242 -178.692 77.6511 -0.353694 0.927188 0.123381
54.645 -178.417 75.4082 -0.306949 0.931266 0.196278
55.6783 -178.005 75.2305 -0.319115 0.933157 0.165482
55.72 -178.15 76.4122 -0.356616 0.92474 0.132969
54.6801 -178.539 76.4012 -0.348704 0.925164 0.149922
55.7212 -178.154 76.4469 -0.353154 0.926599 0.129214
55.7629 -178.299 77.6273 -0.350734 0.928328 0.123259
55.3299 -176.784 77.8631 -0.125034 0.45932 -0.879427
55.7641 -178.303 77.662 -0.351667 0.928001 0.123066
55.8058 -178.447 78.8425 -0.35309 0.926863 0.127489
55.3826 -178.063 75.1897 -0.321026 0.932878 0.163343
54.8013 -176.03 75.495 -0.241235 0.699297 0.672897
55.6712 -177.98 75.1896 -0.324148 0.933549 0.153019
53.3697 -175.997 80.9519 -0.886524 -0.129493 -0.444192
56.7371 -174.642 80.999 -0.863969 -0.223131 -0.45141
56.7196 -174.585 80.6035 -0.947298 -0.250213 -0.200052
56.4988 -173.982 79.0502 -0.894423 0.357781 -0.26833
53.1753 -175.319 79.0037 -0.395526 0.732187 0.554491
53.2026 -175.413 79.7774 -0.980804 0.0651948 0.183774
56.5261 -174.077 79.8239 0.31446 0.948903 0.0264268
47.7242 -176.697 75.6894 -0.367384 0.434719 -0.822222
47.9406 -177.936 75.513 -0.70879 -0.171422 -0.684274
48.0144 -178.192 77.6038 -0.0404535 0.975551 -0.21602
47.7974 -176.951 77.7636 -0.163274 0.44287 -0.881594
48.2921 -181.238 83.7054 -0.194701 0.97344 0.120439
47.2015 -181.45 83.7179 -0.181871 0.980295 0.0770968
48.2492 -181.089 82.4902 -0.189785 0.974175 0.122329
48.2063 -180.94 81.2751 -0.19388 0.972512 0.128961
48.1634 -180.791 80.0599 -0.194018 0.97288 0.125943
47.0728 -181.003 80.0725 -0.183248 0.974937 0.126164
46.7682 -179.935 83.9189 -0.202995 0.970721 0.128426
50.2801 -179.891 76.3908 -0.19522 0.965192 0.174049
49.1919 -180.111 76.4022 -0.19429 0.969099 0.151984
49.1571 -179.99 75.4151 -0.238728 0.950359 0.199568
50.2519 -179.793 75.5911 -0.228055 0.935381 0.270286
50.2813 -179.895 76.4255 -0.190357 0.965666 0.176786
50.323 -180.04 77.606 -0.19359 0.973169 0.124358
50.3242 -180.044 77.6407 -0.196558 0.971895 0.129559
50.3659 -180.189 78.8211 -0.192572 0.972948 0.127627
49.2777 -180.409 78.8325 -0.197451 0.972244 0.125518
49.236 -180.264 77.6521 -0.195811 0.972401 0.126866
52.6024 -179.571 84.9411 -0.0957472 0.355381 -0.929805
52.7539 -180.101 84.8338 -0.233796 0.890306 -0.390761
51.5046 -179.885 84.9414 -0.0936353 0.344079 -0.93426
51.6562 -180.415 84.8341 -0.258632 0.887741 -0.380822
52.761 -180.254 83.7035 -0.325934 0.942353 -0.0757452
52.7778 -180.312 84.1782 -0.270443 0.883907 -0.381535
51.6794 -180.624 84.1853 -0.290437 0.871646 -0.394817
50.597 -180.865 84.3941 -0.210581 0.914454 -0.345586
50.4068 -180.199 84.9417 -0.101713 0.329692 -0.938594
50.5584 -180.729 84.8344 -0.2916 0.905781 -0.307457
47.8587 -179.723 83.9064 -0.176593 0.879268 0.442383
48.0776 -180.494 77.6296 -0.195081 0.972708 0.125628
46.987 -180.705 77.6421 -0.184913 0.974241 0.129084
48.1205 -180.642 78.8448 -0.193319 0.973262 0.124054
47.6972 -179.035 78.3763 0.707195 0.623363 0.333606
47.6635 -179.045 78.3763 -0.748723 0.61084 0.257464
47.1298 -177.179 78.6238 -0.260242 0.329849 -0.907455
47.1644 -177.172 78.6234 -0.262413 0.332828 -0.90574
49.9472 -177.5 85.3346 -0.99219 0.000211372 0.124734
49.6501 -177.553 85.3391 -0.948559 -0.0375507 0.314365
50.5272 -180.747 84.8068 -0.289955 0.908073 -0.302208
50.5386 -180.788 83.7165 -0.190825 0.980156 0.0536729
50.5628 -180.872 84.4005 -0.254828 0.904592 -0.341724
49.4812 -181.116 84.5993 -0.20485 0.951821 -0.228194
49.4505 -181.009 83.7279 -0.200467 0.975523 0.0903723
49.9707 -178.679 79.0203 -0.192012 0.974977 0.112035
51.4039 -179.668 76.3785 -0.220483 0.958295 0.181817
50.3145 -179.884 76.3904 -0.19221 0.965126 0.177728
50.2865 -179.787 75.5967 -0.239454 0.92314 0.30079
51.3828 -179.595 75.7816 -0.223098 0.924513 0.309036
51.4384 -179.661 76.3781 -0.220617 0.958388 0.181164
51.4175 -179.589 75.7877 -0.256314 0.911764 0.320919
51.7805 -176.7 85.3456 -0.706195 -0.138301 -0.694379
52.4033 -178.878 85.0186 0.345174 0.746975 0.568228
52.4065 -178.886 85.044 0.221432 0.751832 0.621061
51.7822 -176.703 85.3719 -0.299783 -0.170327 -0.938679
50.6827 -177.014 85.3459 0.226148 0.0391457 -0.973306
51.3056 -179.192 85.0188 -0.640545 0.488559 0.592462
51.3087 -179.2 85.0443 -0.644249 0.487799 0.589063
50.6845 -177.017 85.3721 0.226148 0.0391457 -0.973306
49.0589 -179.639 85.0733 -0.0791302 0.553502 0.82908
49.0557 -179.63 85.0479 -0.0792066 0.553502 0.829073
47.4794 -177.058 83.2471 0.538601 0.794765 0.279744
47.3683 -176.422 83.3289 -0.330891 -0.242107 -0.912083
47.4966 -176.393 83.277 -0.33712 -0.243775 -0.909353
47.6062 -177.02 83.1963 0.583267 0.7966 -0.158834
47.3139 -176.415 83.1985 -0.330891 -0.242107 -0.912083
47.4422 -176.386 83.1466 -0.333769 -0.246885 -0.909751
47.3988 -176.778 80.9656 0.78172 0.0315733 -0.622829
47.2878 -176.143 81.0473 0.718588 -0.0289983 -0.694831
47.4161 -176.114 80.9955 0.718376 -0.0245536 -0.695222
47.5257 -176.741 80.9148 0.781081 0.0321323 -0.623602
47.2334 -176.136 80.917 0.721408 -0.0250953 -0.692056
47.3617 -176.106 80.8651 0.713955 -0.0153234 -0.700024
46.5699 -180.468 75.2079 -0.186276 0.974731 0.123291
45.7545 -180.614 75.2522 -0.164364 0.97768 0.130869
45.3666 -178.393 75.5666 -0.0904511 0.698415 0.709954
45.9464 -178.287 75.5353 -0.0944925 0.827845 0.552941
46.055 -181.657 83.7683 -0.171253 0.983868 0.0517355
47.1681 -181.461 83.7531 -0.179442 0.983201 0.0334224
53.1871 -178.691 75.1902 -0.280591 0.913439 0.294784
52.3016 -175.594 75.6553 0.467009 0.740209 -0.483729
52.5816 -175.482 75.6597 0.100261 0.397435 -0.912136
53.4757 -178.608 75.1902 -0.279453 0.912275 0.299433
49.8319 -175.979 75.7067 -0.825126 -0.341945 -0.449711
49.8905 -176.314 75.659 0.14338 -0.190912 -0.971079
50.934 -178.023 75.3996 -0.554718 0.617102 -0.558098
50.9338 -178.025 75.3726 -0.554718 0.617102 -0.558098
50.3095 -175.842 75.7005 0.670647 0.0535194 -0.739844
50.3112 -175.845 75.7267 0.161496 0.986294 -0.0337983
52.0318 -177.709 75.3993 0.312985 0.85083 -0.422052
51.4073 -175.528 75.7002 -0.542294 0.835808 0.0856851
51.409 -175.531 75.7264 -0.540761 0.836267 0.0907518
53.1585 -174.446 80.0487 -0.222951 0.528686 -0.819014
53.0046 -174.721 80.0205 -0.189127 0.319907 -0.928381
53.1482 -175.219 84.0875 0.183394 -0.158994 -0.970097
53.3021 -174.945 84.1157 0.301687 -0.335495 -0.892428
52.4169 -174.957 80.0123 0.0392897 0.435346 -0.899406
52.1936 -174.835 80.0352 -0.464565 0.641561 -0.610392
52.3371 -175.333 84.1023 -0.65349 -0.0534016 -0.755049
52.5605 -175.456 84.0793 -0.630086 -0.333138 -0.701434
48.2869 -175.84 80.0499 -0.156438 0.371114 -0.915315
48.4305 -176.338 84.117 -0.103214 -0.324722 -0.940161
48.7063 -176.49 84.0886 -0.051435 -0.238228 -0.969846
48.5627 -175.991 80.0216 -0.328312 0.320918 -0.888382
49.1816 -175.864 80.0153 -0.239471 0.341112 -0.909008
49.3251 -176.362 84.0824 0.639748 0.0573843 -0.766439
49.4724 -176.154 84.1027 0.614205 0.326635 -0.718375
49.3289 -175.656 80.0356 0.0652531 0.779155 -0.623426
56.1054 -173.339 80.0803 -0.265036 0.581327 -0.769295
56.249 -173.838 84.1474 -0.035812 -0.322948 -0.945739
56.3941 -173.899 84.1348 0.00338136 -0.291112 -0.956683
56.2506 -173.4 80.0677 0.0552229 0.507167 -0.860077
45.1883 -176.462 80.083 -0.0262011 0.585054 -0.810571
45.1114 -176.599 80.0689 -0.300581 0.383766 -0.87314
45.2549 -177.097 84.136 0.0838392 -0.24914 -0.964832
45.3318 -176.96 84.1501 0.098368 -0.274817 -0.956452
50.7059 -175.904 76.63 -0.0837702 0.967359 0.239163
50.8372 -175.909 76.9519 -0.054179 0.993541 0.099705
51.1449 -175.805 76.8281 -0.49472 0.861427 0.114871
51.0135 -175.8 76.5062 -0.311432 0.937209 0.156999
51.1759 -175.747 76.8545 -0.49472 0.861427 0.114871
51.0178 -175.741 76.4672 -0.295461 0.938397 0.179205
50.6476 -175.867 76.6162 -0.0837702 0.967359 0.239163
50.8056 -175.873 77.0036 -0.0621965 0.996067 0.0631045
45.7345 -176.657 82.576 -0.927746 0.344309 0.144009
45.578 -176.71 82.6389 -0.934571 0.321314 0.152758
45.8012 -176.66 82.7396 -0.928785 0.342236 0.142241
45.6448 -176.713 82.8026 -0.927186 0.348336 0.137799
45.8136 -176.637 82.7502 -0.928785 0.342236 0.142241
45.7362 -176.633 82.5604 -0.927147 0.344771 0.146737
45.5547 -176.695 82.6334 -0.933201 0.327355 0.148241
45.6322 -176.698 82.8233 -0.927186 0.348336 0.137799
55.8558 -173.762 82.5735 0.682695 0.650899 0.332051
55.9226 -173.765 82.7371 0.700443 0.617813 0.357333
55.7662 -173.818 82.8001 0.697102 0.625944 0.349633
55.935 -173.742 82.7477 0.699593 0.622532 0.350748
55.8576 -173.739 82.5579 0.681339 0.645631 0.344873
55.6761 -173.8 82.6309 0.691775 0.627915 0.356609
55.7536 -173.803 82.8208 0.692791 0.491246 0.527937
52.9085 -176.131 79.683 -0.163476 0.574009 0.802365
53.2258 -176.04 79.6829 -0.45781 0.326223 0.827036
49.3896 -177.137 79.6839 -0.110077 0.476918 0.872028
53.4864 -176.948 83.6118 -0.826641 0.311724 -0.468501
53.1691 -177.039 83.6118 -0.895981 -0.210514 -0.391027
46.7676 -178.389 85.7481 -0.731394 0.161501 0.662556
45.139 -178.829 86.3202 -0.650631 -0.42523 -0.629173
46.7993 -178.458 85.6964 -0.747013 0.151444 0.64733
45.7952 -178.931 88.006 0.487361 0.372189 -0.789908
47.4555 -178.561 87.3823 -0.832414 0.202751 -0.515731
44.9337 -178.136 87.6563 0.744372 0.665852 -0.0505048
44.7443 -178.058 86.7965 0.663821 0.721241 0.19787
44.886 -178.87 86.6921 0.856645 0.506125 -0.0999867
45.0755 -178.947 87.5518 0.713737 0.535844 -0.451056
45.0907 -177.895 85.9999 -0.689623 0.132891 -0.711871
45.2324 -178.706 85.8955 0.776318 0.426366 0.464266
45.1511 -176.888 87.1588 -0.496278 0.798869 0.339876
45.0226 -176.896 87.0483 -0.830027 0.319284 -0.457289
44.9156 -176.931 87.1752 -0.526447 0.850091 -0.0141282
45.0441 -176.923 87.2858 0.930417 0.228611 -0.286462
46.8889 -176.584 87.1573 0.0499431 0.921266 0.385714
46.9959 -176.549 87.0303 0.223602 0.967 0.122121
46.8674 -176.557 86.9197 -0.108635 0.994082 -0.000494328
46.7604 -176.592 87.0467 0.189574 0.691097 -0.697457
45.6905 -177.967 86.7363 -0.448107 0.86713 0.217453
46.1021 -177.857 86.4382 -0.29423 0.95457 -0.0471613
46.6307 -177.858 87.1674 -0.0159904 0.968493 0.248526
46.2192 -177.969 87.4655 -0.0635673 0.984278 0.164788
45.3722 -176.409 86.9168 -0.590386 0.765263 -0.256549
45.0862 -176.517 87.2066 -0.519473 0.825731 -0.219809
44.9792 -176.552 87.3336 -0.440096 0.880848 -0.174418
44.8507 -176.56 87.223 -0.897624 0.439426 0.0342876
44.9578 -176.525 87.0961 -0.546859 0.835919 0.0467414
45.1024 -176.493 87.2078 -0.234252 0.544659 0.805278
44.9525 -176.503 87.0788 -0.546859 0.835919 0.0467414
44.8277 -176.544 87.2269 -0.890744 0.450727 0.0584903
44.9776 -176.534 87.3559 -0.522986 0.848688 0.0788304
46.931 -176.178 87.0781 0.701869 0.705265 0.0999022
46.824 -176.213 87.205 0.0542497 0.985303 -0.161974
46.6955 -176.221 87.0945 0.2709 0.729153 0.62845
46.8025 -176.186 86.9675 0.0605505 0.936488 0.345433
46.9472 -176.155 87.0792 0.701496 0.70528 0.102388
46.7973 -176.164 86.9502 0.116201 0.985405 0.124395
46.6724 -176.205 87.0984 0.216123 0.902359 0.372879
46.8223 -176.195 87.2274 0.114657 0.971929 -0.205444
49.2413 -177.153 84.4662 -0.172172 0.946015 -0.274614
49.38 -177.853 83.5528 0.782122 0.420398 -0.459947
49.47 -177.731 83.4787 0.807325 0.0997958 -0.581607
49.2141 -177.804 83.4788 0.626574 0.677021 -0.386067
49.3548 -177.86 83.5528 0.789196 0.408191 -0.458856
57.0843 -174.675 80.2349 0.91385 0.38149 0.139077
56.9643 -174.692 80.0592 -0.930471 -0.325665 -0.167828
57.047 -174.579 80.1556 -0.930527 -0.310605 -0.194022
57.1388 -174.772 80.4943 -0.927534 -0.273915 -0.254267
53.1561 -176.677 83.4778 -0.8907 -0.183306 -0.415995
53.161 -176.693 83.4185 -0.862062 -0.383719 -0.331073
53.2968 -176.733 83.5518 -0.538675 0.246025 -0.805792
53.0447 -176.065 84.4657 -0.282881 0.456237 -0.843698
53.2974 -176.205 80.1756 -0.284247 0.935397 0.210322
53.2003 -176.301 80.0872 -0.373748 0.771812 0.514411
53.1516 -176.12 79.943 -0.340049 0.480341 0.808479
53.2476 -176.019 80.0378 -0.589604 0.268309 0.761825
53.3663 -176.427 83.7121 -0.848078 0.206663 -0.487908
53.2763 -176.549 83.7861 -0.732692 0.236112 -0.63829
45.0565 -178.007 80.1576 0.94478 0.245935 -0.21658
45.1862 -178.059 80.0612 -0.98761 -0.104339 0.117221
56.039 -173.269 79.8603 -0.0160196 0.665097 -0.746585
55.9898 -173.152 80.0275 -0.79231 0.0621894 -0.606941
61.2702 -170.009 81.5451 0.48887 0.687455 -0.53704
61.2356 -171.069 78.728 -0.455172 0.724707 0.517318
61.2112 -170.983 78.6268 0.301781 -0.232799 -0.924518
40.7344 -177.407 82.134 0.275677 0.954981 -0.109604
40.7173 -177.348 82.2544 0.102179 0.956675 -0.272639
42.0676 -177.156 76.593 0.00571156 0.984644 0.174483
41.9299 -177.099 76.6047 -0.108384 0.98052 0.163807
59.2186 -172.155 76.6005 -0.435139 0.85016 0.296448
59.1316 -172.275 76.5887 -0.465141 0.85509 0.229052
59.965 -171.019 75.5812 -0.990653 -0.00326254 0.136368
59.986 -171.128 75.6675 -0.949932 0.137017 0.280812
59.909 -171.159 75.6648 -0.940274 0.046021 0.337294
59.8701 -171.057 75.5779 -0.991616 -0.00424746 0.129149
58.2135 -171.841 75.641 -0.721537 -0.204424 -0.66151
60.2118 -171.917 76.9615 -0.22254 0.950971 0.214777
60.2289 -171.951 77.0354 -0.28146 0.519829 0.806572
60.1024 -171.108 75.7867 -0.928231 -0.0695139 0.365452
60.3542 -171.983 77.3299 -0.237073 0.663096 0.71
60.2715 -172.096 77.2335 -0.335759 0.800873 0.495851
60.2595 -172.06 77.2046 -0.284971 0.865131 0.412723
60.3463 -171.96 77.2994 -0.190917 0.696678 0.691513
60.8252 -173.696 83.6877 -0.251739 0.087869 -0.963798
60.9267 -173.614 83.4925 0.362505 0.365305 -0.857404
60.9038 -173.568 83.6196 -0.259111 0.0806298 -0.962476
60.5238 -172.978 84.6925 -0.304862 0.894391 -0.327297
60.5334 -173.005 84.6551 -0.349795 0.912002 -0.214232
60.5227 -172.974 84.6977 -0.304862 0.894391 -0.327297
40.9648 -177.46 77.0401 -0.151209 0.731519 0.664843
40.9612 -177.422 76.9662 -0.121717 0.747867 0.652595
40.9971 -177.249 75.7185 -0.38833 -0.28478 -0.876413
40.9173 -177.27 75.7205 -0.314812 -0.231713 -0.920436
41.2673 -178.515 84.6603 -0.201448 0.948646 -0.243905
41.2611 -178.487 84.6976 -0.132186 0.990498 0.0379486
41.1282 -178.427 84.6242 -0.231453 0.972358 -0.0308146
41.1317 -178.443 84.5884 -0.0372438 0.919093 0.392276
41.3845 -179.256 83.6925 -0.342104 0.0742103 -0.936727
41.3663 -179.139 83.8455 0.0346558 0.288613 -0.956819
41.2307 -179.066 83.7736 0.0257906 0.355798 -0.934207
40.8699 -177.53 77.3039 -0.175809 0.732823 0.657314
40.9968 -177.569 77.209 -0.220925 0.875409 0.429943
41.0054 -177.606 77.2379 -0.242357 0.758263 0.605228
40.8757 -177.554 77.3344 -0.175809 0.732823 0.657314
40.8676 -177.522 77.2976 -0.175809 0.732823 0.657314
40.9945 -177.561 77.2027 -0.224151 0.812145 0.538681
40.9714 -177.494 77.0967 -0.151899 0.729337 0.667079
41.2359 -177.519 77.1995 -0.161531 0.615802 0.771165
40.8363 -177.412 77.1278 -0.182515 0.744353 0.64236
40.8156 -177.34 76.9814 -0.14816 0.715776 0.682432
40.7717 -177.188 75.7357 -0.306935 -0.192927 -0.931971
40.7228 -176.59 75.3139 0.933901 0.356881 0.0215562
40.6897 -176.51 75.4253 0.808219 0.588805 -0.00951373
40.5538 -176.426 75.4404 0.927479 0.373845 -0.00478332
40.605 -176.605 75.1953 0.891726 0.452515 -0.00743293
40.6093 -176.62 75.193 0.93642 0.350805 0.00726139
40.6079 -176.615 75.1592 0.919391 0.393282 -0.00699422
40.7304 -176.617 75.3098 0.887428 0.459287 0.0390822
41.3831 -177.455 77.2056 -0.13613 0.694464 0.706532
41.3358 -177.515 77.2962 -0.144204 0.693425 0.705951
60.4606 -173.545 83.8113 -0.352601 0.0321434 -0.935221
60.6307 -173.596 83.8988 -0.242797 0.226374 -0.943294
60.4655 -173.204 84.4475 -0.371982 0.928019 0.0202618
59.9212 -172.137 77.1428 -0.0219674 -0.286391 -0.957861
41.5809 -178.292 85.3074 -0.192272 0.807543 0.557589
41.5639 -178.22 85.316 -0.320551 0.286932 -0.902728
41.4717 -178.246 85.3611 -0.323466 0.856443 -0.402338
41.4889 -178.32 85.353 -0.301312 0.67 -0.678463
42.4558 -178.044 85.3528 -0.0813362 0.188997 -0.978603
42.4308 -177.971 85.3609 -0.0828358 0.167268 -0.982425
42.3389 -177.998 85.3158 0.0294248 0.0874126 -0.995737
42.3625 -178.068 85.3072 -0.0384503 0.149537 -0.988008
59.3677 -173.205 85.303 -0.0290268 0.206615 -0.977992
59.3507 -173.133 85.3116 -0.113579 0.183697 -0.976399
59.2586 -173.158 85.3567 -0.0386703 0.223466 -0.973944
59.2757 -173.233 85.3486 -0.0463199 0.197851 -0.979137
60.2426 -172.957 85.3484 -0.098304 0.705759 -0.701599
60.2176 -172.884 85.3565 -0.0808165 0.591222 -0.80245
60.1257 -172.911 85.3114 0.211106 0.286745 -0.934458
60.1493 -172.981 85.3029 0.0347042 0.418085 -0.907745
49.8324 -175.668 77.8782 -0.875937 -0.337806 -0.344415
49.7396 -175.523 77.9641 0.922633 0.344332 0.173735
49.7977 -175.547 77.8603 0.906144 0.40571 0.119592
49.6849 -175.335 77.3619 0.921635 0.378698 -0.084711
49.6241 -175.275 77.3103 0.905732 0.361321 -0.221577
49.6656 -175.414 78.0027 -0.951888 -0.29345 -0.0883014
49.6014 -175.204 77.6883 0.932571 0.360409 -0.0204153
49.6672 -175.279 77.6692 0.873184 0.487165 0.0148547
49.7182 -175.449 77.9253 0.940926 0.325066 0.0948207
49.6919 -175.504 78.0438 0.929486 0.334471 0.155514
49.751 -175.709 78.0681 0.85476 0.419091 0.306184
62.0948 -171.334 84.3075 -0.96937 -0.241618 0.0440842
61.8736 -170.561 84.41 -0.823169 0.479149 -0.304646
61.5457 -170.314 84.4482 -0.747628 0.640081 -0.177056
61.368 -170.348 84.3176 -0.639468 0.739864 -0.209001
59.5219 -168.407 76.3179 -0.55487 0.310203 -0.771941
59.5093 -168.41 76.3176 -0.54213 0.313781 -0.77951
59.4629 -168.248 76.5407 -0.55479 0.305318 -0.773944
59.6593 -168.389 76.4563 -0.550745 0.305865 -0.776612
39.059 -177.925 84.3129 -0.976707 -0.104329 0.187507
39.075 -177.98 84.7658 -0.970344 0.121228 0.20913
38.8544 -177.209 84.8504 0.682267 0.481236 -0.550385
39.1699 -178.099 84.7492 0.0585679 0.986102 -0.155475
39.28 -178.16 84.7418 0.0350209 0.987505 -0.15365
39.3493 -178.053 84.8935 -0.0620348 0.378078 -0.923693
39.2392 -177.992 84.9009 0.377048 0.316456 -0.870454
39.2107 -177.957 84.905 0.259718 0.490166 -0.832036
39.6909 -174.079 76.3228 0.266514 0.94107 -0.208225
39.5649 -174.136 76.4612 0.191811 0.963239 -0.188092
39.8253 -175.047 76.3199 -0.810155 0.57864 0.0939413
39.9512 -174.989 76.1815 -0.241976 0.389894 0.888499
39.8536 -175.33 76.1407 -0.906648 0.411852 0.0914674
39.8134 -175.186 76.3004 -0.810399 0.578966 0.0897275
57.6038 -172.739 82.9656 -0.385246 0.919384 0.0794931
57.1431 -172.729 81.5288 -0.620094 0.753407 -0.218772
59.0385 -171.982 81.5536 0.0813291 0.980535 -0.178708
57.2194 -172.666 80.9974 -0.535554 0.842119 -0.0633918
57.2098 -172.63 81.0027 -0.531405 0.845016 -0.0596399
55.6621 -173.328 81.5429 -0.687085 0.581194 0.436036
55.6668 -173.343 81.541 -0.687085 0.581194 0.436036
55.5785 -173.287 80.9949 -0.717594 0.504949 0.479672
53.6147 -174.153 81.514 -0.539529 -0.45729 -0.706962
53.6247 -174.191 81.5093 -0.540771 -0.455884 -0.706921
53.6694 -174.097 80.9626 -0.650329 -0.463082 -0.602186
53.6597 -174.06 80.9678 -0.661858 -0.43558 -0.610093
54.4911 -174.217 83.3822 0.369091 -0.229701 -0.90056
55.0242 -174.002 83.3897 -0.314331 0.923924 0.218084
55.3773 -173.804 82.985 -0.548308 -0.270962 -0.791163
55.8266 -173.429 81.569 -0.642226 0.625192 0.443487
51.8115 -174.804 80.9543 0.0788588 0.988853 -0.126295
51.8825 -174.87 81.5152 0.462537 0.616093 -0.637564
50.8807 -175.506 83.3307 -0.632544 -0.128464 -0.763797
50.7868 -175.56 83.3277 0.627236 0.0352487 -0.778031
50.2786 -175.593 82.9779 0.508249 0.191503 -0.839648
49.5945 -175.524 81.5157 -0.648539 0.418236 -0.635985
49.5903 -175.508 81.5177 -0.648539 0.418236 -0.635985
49.6241 -175.448 80.9524 -0.317223 0.9462 -0.0638371
49.6196 -175.431 80.9549 -0.32958 0.942347 -0.0579642
50.6947 -175.235 80.6675 -0.0831825 -0.124699 -0.988702
50.7112 -175.339 80.5282 0.937612 0.333027 -0.0998837
50.755 -175.332 80.5275 0.902374 0.404889 -0.147603
50.7388 -175.227 80.6669 -0.0816368 0.0502795 -0.995393
49.5065 -175.681 81.5495 -0.666471 0.475852 -0.573918
49.542 -175.587 80.8689 -0.750334 0.660497 -0.0272373
50.1145 -175.337 80.6754 -0.20159 -0.183327 -0.96216
50.131 -175.442 80.5361 -0.200434 -0.116095 -0.972804
50.8012 -175.698 83.4358 0.928609 0.34318 0.14111
50.834 -175.553 83.3293 0.625511 0.133616 -0.768689
50.8577 -175.688 83.4379 0.929893 0.347883 0.119485
50.8979 -175.677 83.4379 -0.96759 -0.237022 0.0871263
50.8466 -175.55 83.3293 -0.619535 -0.20148 -0.758672
52.0402 -174.957 81.5489 0.394025 0.671389 -0.62768
45.5755 -176.23 81.5434 0.142506 0.884679 0.443886
45.5713 -176.214 81.5454 0.142506 0.884679 0.443886
45.6248 -176.152 80.9949 0.334616 0.790416 0.513103
45.6203 -176.135 80.9973 0.298062 0.808863 0.506853
45.4851 -176.387 81.5715 0.313492 0.848469 0.426407
45.5442 -176.291 80.9088 -0.502411 0.864132 0.0292961
47.036 -176.349 83.3841 -0.326389 -0.307523 -0.893812
46.4701 -176.449 83.3918 -0.212517 0.957139 0.196778
47.4116 -176.23 82.9689 -0.333176 -0.238662 -0.912159
46.0655 -176.468 82.9873 0.463331 0.255887 -0.848437
46.1238 -176.149 80.5909 -0.212416 0.9754 -0.0589367
47.7858 -175.896 80.8782 0.785288 -0.0398739 -0.617845
47.8916 -175.962 81.5386 0.674039 -0.00231264 -0.738692
48.5984 -175.787 80.0929 -0.00902458 0.452487 -0.891725
48.9076 -176.785 79.9828 -0.967377 0.252214 -0.0238789
49.0978 -177.401 80.1832 -0.392186 0.910633 -0.130142
49.2325 -177.436 80.0884 -0.364937 0.92489 -0.106771
48.9888 -176.643 79.4502 -0.0644076 0.787167 0.613367
49.0442 -177.259 83.8521 -0.873875 0.461646 -0.1524
42.4798 -176.956 82.9828 -0.133623 0.976112 0.171322
41.9938 -176.857 81.5578 -0.601585 0.798555 -0.020122
42.4758 -176.94 82.9847 -0.133623 0.976112 0.171322
43.6243 -176.779 82.9642 -0.158547 0.966096 0.203767
42.0663 -176.778 81.0286 -0.456692 0.88947 -0.0166223
41.9008 -177.014 81.5787 -0.56094 0.827854 -0.00189124
41.9878 -176.916 80.9394 -0.33944 0.938376 -0.0650543
42.3868 -177.112 83.0037 -0.307275 0.911948 0.271905
42.818 -176.951 83.3464 -0.163861 0.972911 0.163073
43.3117 -176.874 83.3386 -0.154934 0.976042 0.152764
43.3861 -176.993 83.436 -0.159731 0.945141 0.284946
42.7933 -177.098 83.4441 -0.134311 0.929845 0.342563
43.7611 -176.87 82.9849 -0.162526 0.936892 0.309545
44.1461 -176.618 81.548 0.274278 0.781384 -0.560544
44.0141 -176.559 80.9117 0.0834187 0.993554 -0.0767534
42.5552 -176.779 80.6396 -0.195072 0.964808 -0.176332
44.7864 -176.478 80.1428 0.0432732 0.264794 -0.963333
41.421 -177.131 81.8336 -0.516126 0.853846 0.0675346
44.9245 -176.958 84.0572 -0.348937 -0.219688 -0.911032
57.6512 -172.419 80.7676 -0.449617 0.891152 -0.0607722
57.6228 -172.32 80.7785 -0.44739 0.8926 -0.0557409
57.1824 -172.542 81.0138 -0.533724 0.84324 -0.0639092
57.1164 -172.643 81.541 -0.451005 0.886194 0.106088
57.0375 -172.448 80.9555 -0.53745 0.840923 -0.0632168
56.957 -172.568 81.5926 -0.450229 0.891587 0.0486363
57.573 -172.192 80.6699 -0.452734 0.889304 -0.0645811
58.3935 -171.862 80.6814 -0.299786 0.949903 -0.0883883
57.4178 -172.578 83.0293 -0.389493 0.910585 0.138314
57.5771 -172.653 82.9777 -0.389493 0.910585 0.138314
55.633 -173.218 81.5583 -0.794993 0.466006 0.388361
53.6323 -173.972 80.979 -0.657733 -0.445569 -0.607335
53.588 -174.066 81.5263 0.306295 0.702257 0.642666
53.4854 -173.879 80.9238 -0.332702 0.942844 0.0188113
53.4313 -173.992 81.5852 0.310288 0.699078 0.644214
53.981 -173.965 83.0152 0.375501 -0.210183 -0.902675
51.3344 -174.959 80.6793 0.166012 0.198944 -0.965847
51.8486 -174.744 81.5326 0.471986 0.602018 -0.644053
50.8526 -175.406 83.3461 -0.620288 -0.0967226 -0.778387
51.305 -175.164 82.9951 -0.580316 0.077606 -0.810685
50.1068 -175.311 80.6796 -0.251183 0.11129 -0.961521
49.5568 -175.4 81.5332 -0.650104 0.435185 -0.62288
50.6923 -174.96 80.5736 -0.158261 0.120789 -0.979981
50.6521 -174.972 80.5736 0.06175 0.0350789 -0.997475
50.6773 -175.106 80.6822 -0.148161 -0.0673838 -0.986665
50.7422 -175.088 80.6822 0.0367579 0.264155 -0.96378
50.76 -175.081 80.6824 0.0380327 0.253158 -0.966677
50.7102 -174.953 80.5739 -0.158261 0.120789 -0.979981
50.8218 -175.306 83.485 -0.640224 -0.0988086 -0.761807
51.3714 -175.026 83.0594 -0.575219 0.0504382 -0.816443
50.7236 -175.334 83.4848 0.521768 0.415846 -0.744869
50.1116 -175.386 83.0597 0.298279 0.676467 -0.673367
47.6343 -175.688 80.9804 0.787044 -0.051086 -0.614778
47.132 -175.732 80.7307 0.497357 0.0241366 -0.86721
47.1604 -175.831 80.7198 0.766709 0.000319526 -0.641995
47.7222 -175.744 81.5278 -0.678464 0.166101 0.715609
46.0997 -176.018 80.7344 -0.218622 0.956632 0.19251
46.0715 -175.919 80.7452 -0.250129 0.968026 0.0190097
45.5869 -176.027 81.0108 0.324844 0.796072 0.510632
45.5377 -176.105 81.5608 0.147307 0.886104 0.439455
47.8157 -175.598 81.5866 -0.566035 0.59466 0.57095
47.71 -175.531 80.9251 -0.159811 0.98713 0.00585037
47.1067 -175.597 80.6221 -0.0587534 0.998099 0.0186245
46.3917 -176.085 83.4405 -0.086229 0.903662 0.419475
46.9592 -175.985 83.4328 0.0233158 0.92346 0.382985
45.9865 -176.104 83.0352 0.141632 0.676913 -0.722308
47.3356 -175.866 83.0168 -0.340247 -0.246105 -0.907559
43.865 -176.351 81.0172 0.0182068 0.997945 -0.0614383
43.3738 -176.395 80.782 -0.0926326 0.99321 -0.0703797
43.4022 -176.495 80.7711 -0.0926326 0.99321 -0.0703797
43.9746 -176.401 81.5442 -0.0669111 0.990037 0.123893
43.9384 -176.194 80.9589 0.00945098 0.998043 -0.0618105
44.0702 -176.253 81.5958 -0.261147 0.811765 0.522341
43.3092 -176.629 83.4848 -0.153578 0.967482 0.200978
43.6852 -176.506 83.0327 -0.158615 0.9656 0.206051
60.0522 -173.055 85.2422 -0.619292 0.730235 0.288505
59.4017 -173.337 85.284 -0.0680875 0.186003 -0.980187
42.401 -178.19 85.2894 -0.0621086 0.179623 -0.981773
42.5058 -178.269 85.1977 -0.136297 0.223388 -0.965153
42.2813 -178.191 85.2401 0.0416916 0.301322 -0.95261
42.2976 -178.294 85.1059 0.145008 0.351524 -0.92488
41.5867 -178.314 85.3042 -0.177193 0.83826 0.515677
41.5149 -178.445 85.2135 -0.156516 0.683155 0.713304
41.7166 -178.396 85.1139 -0.512329 0.791709 -0.332739
41.7003 -178.294 85.248 -0.0802333 0.99553 0.0498236
50.1288 -176.814 85.2327 0.0826736 0.102273 -0.991315
50.178 -176.802 85.2324 0.0843285 0.102069 -0.991197
50.104 -176.543 85.2607 0.0446452 -0.110353 -0.992889
50.0569 -176.562 85.2602 0.0753931 -0.129432 -0.988718
52.1095 -176.247 85.2322 -0.155619 0.0877683 -0.98391
52.0376 -175.996 85.2598 -0.00744876 -0.235266 -0.971902
51.9871 -176.004 85.2603 -0.0055014 -0.158001 -0.987424
52.0614 -176.264 85.2319 -0.179789 -0.00963137 -0.983658
50.0176 -176.437 85.1561 -0.318846 0.689888 0.649917
50.0472 -176.425 85.1563 -0.334245 0.701957 0.628917
52.0057 -175.868 85.1556 -0.0777033 0.608857 0.789465
51.974 -175.873 85.1559 -0.0539327 0.90334 0.425521
52.1117 -176.255 85.231 -0.271243 -0.0187238 -0.962329
52.0992 -176.26 85.2308 -0.287675 0.0976706 -0.952735
52.1387 -176.354 85.097 -0.474566 0.553236 -0.684629
52.0913 -176.263 85.2308 -0.300246 -0.0160052 -0.953728
52.1189 -176.36 85.0969 -0.637626 0.12869 -0.759521
52.0912 -176.368 85.0969 -0.61891 0.135533 -0.773681
52.0634 -176.271 85.2308 -0.176663 -0.045052 -0.98324
50.1557 -176.816 85.2312 0.0826736 0.102273 -0.991315
50.1836 -176.914 85.0974 -0.200905 0.239118 -0.949979
50.208 -176.907 85.0974 -0.200905 0.239118 -0.949979
50.1801 -176.81 85.2312 0.0843285 0.102069 -0.991197
50.1632 -176.919 85.0975 0.19198 0.116682 -0.974438
50.1475 -176.818 85.2313 0.0755257 0.12345 -0.989473
50.131 -176.821 85.2315 0.0826736 0.102273 -0.991315
52.3919 -175.706 85.3089 -0.12925 0.503794 0.854099
52.2995 -175.819 85.2248 -0.122348 0.574814 0.809086
52.3231 -175.915 85.2603 0.227377 0.0636168 -0.971727
52.4423 -175.896 85.3777 0.289729 0.034144 -0.9565
52.5034 -176.128 85.3557 0.807181 0.535899 -0.24753
52.3836 -176.146 85.2348 0.0866492 0.899479 -0.428286
58.5769 -173.258 85.3539 -0.657154 -0.252016 -0.710378
58.6452 -173.148 85.2577 -0.432731 0.813868 0.387767
58.4859 -173.072 85.2686 -0.603279 -0.468689 -0.645279
58.4763 -173.235 85.3818 -0.689816 -0.201068 -0.695504
58.5643 -173.322 85.3604 -0.56958 -0.134344 -0.810882
58.4839 -173.35 85.3953 -0.348319 0.00714557 -0.937349
42.9457 -177.638 85.2615 0.0154028 0.872039 0.489193
43.0407 -177.489 85.2662 0.878913 0.118084 -0.462134
42.9452 -177.637 85.2515 0.00231619 0.847408 0.530936
43.0621 -177.696 85.3577 0.67594 0.060278 -0.734487
43.1224 -178.16 85.1811 0.787626 0.60096 -0.135989
43.1191 -178.148 85.0896 0.180479 0.970074 0.162431
